X Y Z
0.0522293 -0.0576684 0.1355
0.0517953 -0.0575407 0.1352
0.0512866 -0.0573279 0.1347
0.0507423 -0.0570725 0.1341
0.0502761 -0.0569023 0.1337
0.0498118 -0.056732 0.1333
0.0490733 -0.0566044 0.133
0.0486868 -0.0565192 0.1328
0.0483013 -0.0564341 0.1326
0.0479528 -0.0563916 0.1325
0.0460112 -0.0563064 0.1323
0.0457342 -0.056349 0.1324
0.0455253 -0.0564767 0.1327
0.045281 -0.0565618 0.1329
0.0450357 -0.0566469 0.1331
0.0448231 -0.0567746 0.1334
0.0447091 -0.05703 0.134
0.0446255 -0.0573279 0.1347
0.0445715 -0.0576684 0.1355
0.0439276 -0.0589451 0.1385
0.0436959 -0.0590728 0.1388
0.0434315 -0.0591579 0.139
0.0431662 -0.0592431 0.1392
0.0428384 -0.0592431 0.1392
0.0425106 -0.0592431 0.1392
0.0421525 -0.0592005 0.1391
0.0418551 -0.0592431 0.1392
0.0414974 -0.0592005 0.1391
0.0411403 -0.0591579 0.139
0.040813 -0.0591579 0.139
0.0404856 -0.0591579 0.139
0.0401872 -0.0592005 0.1391
0.0375069 -0.0596261 0.1401
0.0372566 -0.0597538 0.1404
0.0370049 -0.0598815 0.1407
0.0366997 -0.059924 0.1408
0.0364198 -0.0600091 0.141
0.0361389 -0.0600943 0.1412
0.0358064 -0.0600943 0.1412
0.0354739 -0.0600943 0.1412
0.0351414 -0.0600943 0.1412
0.0348089 -0.0600943 0.1412
0.034452 -0.0600517 0.1411
0.0340956 -0.0600091 0.141
0.0337396 -0.0599666 0.1409
0.0333841 -0.059924 0.1408
0.0329821 -0.0597963 0.1405
0.0272112 -0.056732 0.1333
0.0268772 -0.0566895 0.1332
0.0265436 -0.0566469 0.1331
0.0212376 -0.0558809 0.1313
0.0208965 -0.0557957 0.1311
0.0205564 -0.0557106 0.1309
0.0202172 -0.0556255 0.1307
0.019879 -0.0555404 0.1305
0.0195567 -0.0554978 0.1304
0.0192496 -0.0554978 0.1304
0.0189426 -0.0554978 0.1304
0.0186498 -0.0555404 0.1305
0.0183284 -0.0554978 0.1304
0.0180352 -0.0555404 0.1305
0.0177279 -0.0555404 0.1305
0.0174339 -0.0555829 0.1306
0.0171395 -0.0556255 0.1307
0.0168832 -0.0557957 0.1311
0.0166504 -0.0560511 0.1317
0.0164519 -0.0564341 0.1326
0.0164318 -0.0574556 0.135
0.0162213 -0.0578386 0.1359
0.0159715 -0.058094 0.1365
0.0157303 -0.0583919 0.1372
0.0154746 -0.0586472 0.1378
0.0152051 -0.05886 0.1383
0.0148902 -0.0589026 0.1384
0.0143643 -0.058094 0.1365
0.0138577 -0.0573279 0.1347
0.012657 -0.0562213 0.1321
0.0123273 -0.0561362 0.1319
0.0113609 -0.055966 0.1315
0.0110428 -0.0559234 0.1314
0.00944514 -0.0556255 0.1307
0.00911639 -0.0554978 0.1304
0.0068654 -0.0546892 0.1285
0.00656281 -0.0546892 0.1285
0.00626021 -0.0546892 0.1285
0.00596226 -0.0547317 0.1286
0.00565503 -0.0546892 0.1285
0.0053441 -0.0546041 0.1283
0.00503412 -0.0545189 0.1281
0.00471769 -0.0543487 0.1277
0.00440314 -0.0541785 0.1273
0.00409048 -0.0540082 0.1269
0.00378269 -0.0538805 0.1266
0.00347356 -0.0537103 0.1262
0.00317135 -0.0536252 0.126
0.00287236 -0.0535826 0.1259
0.00257385 -0.0535401 0.1258
0.00227761 -0.0535401 0.1258
0.00198453 -0.0536252 0.126
0.00168916 -0.0536678 0.1261
0.00139442 -0.0537529 0.1263
0.00109788 -0.0537954 0.1264
0.000801497 -0.0538805 0.1266
0.000504172 -0.0539657 0.1268
0.000205906 -0.0540508 0.127
-9.32289e-05 -0.0540933 0.1271
-0.000392835 -0.0541359 0.1272
-0.000694544 -0.0543061 0.1276
-0.000995799 -0.0543487 0.1277
-0.00129651 -0.0543487 0.1277
-0.00159847 -0.0543913 0.1278
-0.0019009 -0.0544338 0.1279
-0.0022038 -0.0544764 0.128
-0.00250913 -0.0545615 0.1282
-0.00281321 -0.0546041 0.1283
-0.00312019 -0.0546892 0.1285
-0.00342012 -0.0546466 0.1284
-0.00372538 -0.0546892 0.1285
-0.00591677 -0.0501779 0.1179
-0.0061944 -0.0501779 0.1179
-0.00647203 -0.0501779 0.1179
-0.00675539 -0.0502204 0.118
-0.00903964 -0.0521782 0.1226
-0.00937399 -0.0524335 0.1232
-0.00969548 -0.0526038 0.1236
-0.0115959 -0.0507311 0.1192
-0.0123336 -0.0503055 0.1182
-0.01258 -0.0501779 0.1179
-0.0128467 -0.0501353 0.1178
-0.0131129 -0.0500927 0.1177
-0.0133673 -0.0500076 0.1175
-0.013644 -0.0500076 0.1175
-0.0139089 -0.0499651 0.1174
-0.0141733 -0.0499225 0.1173
-0.0144248 -0.0498374 0.1171
-0.014688 -0.0497948 0.117
-0.0149635 -0.0497948 0.117
-0.0152391 -0.0497948 0.117
-0.0155013 -0.0497523 0.1169
-0.0157766 -0.0497523 0.1169
-0.0160519 -0.0497523 0.1169
-0.0163411 -0.0497948 0.117
-0.0166308 -0.0498374 0.1171
-0.0169354 -0.0499225 0.1173
-0.018129 -0.0517526 0.1216
-0.0185062 -0.0520079 0.1222
-0.018917 -0.0523484 0.123
-0.0193471 -0.0527314 0.1239
-0.0197023 -0.0529017 0.1243
-0.0200433 -0.0530294 0.1246
-0.020304 -0.0529442 0.1244
-0.020597 -0.0529442 0.1244
-0.0208899 -0.0529442 0.1244
-0.0211658 -0.0529017 0.1243
-0.021424 -0.0528166 0.1241
-0.0216812 -0.0527314 0.1239
-0.0219553 -0.0526889 0.1238
-0.0222109 -0.0526038 0.1236
-0.0224473 -0.0524761 0.1233
-0.0227008 -0.052391 0.1231
-0.0229533 -0.0523058 0.1229
-0.0232238 -0.0522633 0.1228
-0.0234747 -0.0521782 0.1226
-0.023744 -0.0521356 0.1225
-0.0240128 -0.052093 0.1224
-0.024301 -0.052093 0.1224
-0.0245692 -0.0520505 0.1223
-0.0248572 -0.0520505 0.1223
-0.0251452 -0.0520505 0.1223
-0.0254332 -0.0520505 0.1223
-0.0257212 -0.0520505 0.1223
-0.0260092 -0.0520505 0.1223
-0.0262756 -0.0520079 0.1222
-0.0265199 -0.0519228 0.122
-0.0268072 -0.0519228 0.122
-0.0270279 -0.0517951 0.1217
-0.0272471 -0.0516674 0.1214
-0.027533 -0.0516674 0.1214
-0.0312236 -0.0516249 0.1213
-0.0332171 -0.0525186 0.1234
-0.0336435 -0.0527314 0.1239
-0.0340448 -0.0529017 0.1243
-0.0344756 -0.0531145 0.1248
-0.0348531 -0.0532422 0.1251
-0.0353162 -0.0534975 0.1257
-0.0359239 -0.0539657 0.1268
-0.052977 -0.0487734 0.1146
-0.0532468 -0.0487734 0.1146
-0.0536101 -0.0488585 0.1148
-0.0538804 -0.0488585 0.1148
-0.0541979 -0.0489011 0.1149
-0.0544685 -0.0489011 0.1149
-0.0547391 -0.0489011 0.1149
-0.0550575 -0.0489436 0.115
-0.0553764 -0.0489862 0.1151
-0.0556475 -0.0489862 0.1151
-0.0559185 -0.0489862 0.1151
-0.0561895 -0.0489862 0.1151
-0.0564115 -0.0489436 0.115
-0.0566823 -0.0489436 0.115
-0.0569531 -0.0489436 0.115
-0.0572239 -0.0489436 0.115
-0.0574947 -0.0489436 0.115
-0.0577655 -0.0489436 0.115
-0.0580363 -0.0489436 0.115
-0.0583072 -0.0489436 0.115
-0.058578 -0.0489436 0.115
-0.0588488 -0.0489436 0.115
-0.0591196 -0.0489436 0.115
-0.0593904 -0.0489436 0.115
-0.0597131 -0.0489862 0.1151
-0.0600362 -0.0490287 0.1152
-0.0602551 -0.0489862 0.1151
-0.0605788 -0.0490287 0.1152
-0.0609029 -0.0490713 0.1153
-0.0612274 -0.0491139 0.1154
-0.0648138 -0.047752 0.1122
-0.065136 -0.0477945 0.1123
-0.0654005 -0.0477945 0.1123
-0.0683479 -0.047454 0.1115
-0.0685489 -0.0474115 0.1114
-0.0521958 -0.0294513 0.0692
-0.0545697 -0.0301322 0.0708
0.0832358 -0.0603412 0.141
0.0827647 -0.0607263 0.1419
0.0785971 -0.0591001 0.1381
0.0551462 -0.058715 0.1372
0.0547032 -0.0585866 0.1369
0.0543014 -0.058501 0.1367
0.0539005 -0.0584154 0.1365
0.0533828 -0.0582014 0.136
0.0529845 -0.0581158 0.1358
0.0516038 -0.0576451 0.1347
0.0511723 -0.0575167 0.1344
0.0507045 -0.0573455 0.134
0.0502761 -0.0572171 0.1337
0.0480614 -0.056832 0.1328
0.0477487 -0.056832 0.1328
0.0457687 -0.0567036 0.1325
0.0455596 -0.056832 0.1328
0.0453491 -0.0569604 0.1331
0.0451034 -0.0570459 0.1333
0.0448903 -0.0571743 0.1336
0.0446758 -0.0573027 0.1339
0.0445592 -0.0575595 0.1345
0.044407 -0.0577735 0.135
0.0443504 -0.0581158 0.1358
0.0441927 -0.0583298 0.1363
0.0440648 -0.0585866 0.1369
0.0439661 -0.0588861 0.1376
0.0438007 -0.0591001 0.1381
0.0435699 -0.0592285 0.1384
0.043369 -0.0593997 0.1388
0.0430732 -0.0594425 0.1389
0.0428076 -0.0595281 0.1391
0.0424801 -0.0595281 0.1391
0.0421525 -0.0595281 0.1391
0.041825 -0.0595281 0.1391
0.0414974 -0.0595281 0.1391
0.0411403 -0.0594853 0.139
0.0407836 -0.0594425 0.1389
0.0404274 -0.0593997 0.1388
0.0401005 -0.0593997 0.1388
0.0397164 -0.0593141 0.1386
0.0372124 -0.0594853 0.139
0.0370178 -0.0596992 0.1395
0.0368208 -0.0599132 0.14
0.0365433 -0.0599988 0.1402
0.0362648 -0.0600844 0.1404
0.0359598 -0.0601272 0.1405
0.0356796 -0.0602128 0.1407
0.0353483 -0.0602128 0.1407
0.035017 -0.0602128 0.1407
0.0346857 -0.0602128 0.1407
0.0343055 -0.0601272 0.1405
0.0339505 -0.0600844 0.1404
0.0336199 -0.0600844 0.1404
0.0332181 -0.059956 0.1401
0.0328178 -0.0598276 0.1398
0.0324188 -0.0596992 0.1395
0.0319983 -0.0595281 0.1391
0.0286377 -0.0573883 0.1341
0.0282374 -0.0572171 0.1337
0.0278599 -0.0570887 0.1334
0.0274839 -0.0569604 0.1331
0.0271092 -0.056832 0.1328
0.0267965 -0.056832 0.1328
0.0265037 -0.0568748 0.1329
0.026171 -0.056832 0.1328
0.0245518 -0.0567036 0.1325
0.0242215 -0.0566608 0.1324
0.0229224 -0.0565324 0.1321
0.021596 -0.0563184 0.1316
0.0212538 -0.0562328 0.1314
0.0208965 -0.0561044 0.1311
0.0205564 -0.0560189 0.1309
0.0202172 -0.0559333 0.1307
0.0198638 -0.0558049 0.1304
0.0195567 -0.0558049 0.1304
0.0192496 -0.0558049 0.1304
0.0189426 -0.0558049 0.1304
0.0186498 -0.0558477 0.1305
0.0183425 -0.0558477 0.1305
0.0180214 -0.0558049 0.1304
0.0177415 -0.0558905 0.1306
0.0174473 -0.0559333 0.1307
0.0171526 -0.0559761 0.1308
0.0168961 -0.0561472 0.1312
0.016663 -0.056404 0.1318
0.0162492 -0.0571315 0.1335
0.0161258 -0.0578163 0.1351
0.0158779 -0.058073 0.1357
0.0156271 -0.0583298 0.1363
0.0153623 -0.0585438 0.1368
0.0150842 -0.058715 0.1372
0.0147826 -0.0588005 0.1374
0.0126858 -0.0566608 0.1324
0.0123553 -0.0565752 0.1322
0.0120167 -0.0564468 0.1319
0.0117061 -0.0564468 0.1319
0.0113868 -0.056404 0.1318
0.0110596 -0.0563184 0.1316
0.0107334 -0.0562328 0.1314
0.0104161 -0.05619 0.1313
0.0100915 -0.0561044 0.1311
0.00978276 -0.0561044 0.1311
0.00945959 -0.0560189 0.1309
0.00913037 -0.0558905 0.1306
0.00879581 -0.0557193 0.1302
0.00782762 -0.0553769 0.1294
0.00750547 -0.0552485 0.1291
0.00719031 -0.055163 0.1289
0.00688143 -0.0551202 0.1288
0.00657813 -0.0551202 0.1288
0.00626996 -0.0550774 0.1287
0.00597153 -0.0551202 0.1288
0.00566383 -0.0550774 0.1287
0.00534827 -0.054949 0.1284
0.00503805 -0.0548634 0.1282
0.00472138 -0.0546922 0.1278
0.0044066 -0.054521 0.1274
0.00409693 -0.0543926 0.1271
0.00378568 -0.0542215 0.1267
0.00347907 -0.0540931 0.1264
0.00317135 -0.0539219 0.126
0.00287008 -0.0538363 0.1258
0.00257385 -0.0538363 0.1258
0.00227761 -0.0538363 0.1258
0.0019798 -0.0537935 0.1257
0.0016838 -0.0537935 0.1257
0.0013889 -0.0538363 0.1258
0.00109354 -0.0538791 0.1259
0.000798331 -0.0539647 0.1261
0.000502184 -0.0540503 0.1263
0.000204933 -0.0540931 0.1264
-9.28621e-05 -0.0541787 0.1266
-0.000391908 -0.0543071 0.1269
-0.000692912 -0.0544782 0.1273
-0.000994239 -0.0545638 0.1275
-0.00129651 -0.0546494 0.1277
-0.00160097 -0.0547778 0.128
-0.00190387 -0.0548206 0.1281
-0.00220897 -0.0549062 0.1283
-0.00251696 -0.0550346 0.1286
-0.00282418 -0.0551202 0.1288
-0.00312991 -0.055163 0.1289
-0.00343344 -0.055163 0.1289
-0.00373988 -0.0552057 0.129
-0.00404678 -0.0552485 0.1291
-0.00435753 -0.0553341 0.1293
-0.0061944 -0.0504555 0.1179
-0.00647203 -0.0504555 0.1179
-0.00674967 -0.0504555 0.1179
-0.0103441 -0.0532372 0.1244
-0.0106456 -0.05328 0.1245
-0.0109388 -0.05328 0.1245
-0.0117869 -0.0506267 0.1183
-0.0120553 -0.0505839 0.1182
-0.0123128 -0.0504983 0.118
-0.01258 -0.0504555 0.1179
-0.0128467 -0.0504127 0.1178
-0.0131241 -0.0504127 0.1178
-0.0133901 -0.0503699 0.1177
-0.013644 -0.0502843 0.1175
-0.0139089 -0.0502415 0.1174
-0.0141733 -0.0501987 0.1173
-0.0144372 -0.0501559 0.1172
-0.014688 -0.0500703 0.117
-0.0149635 -0.0500703 0.117
-0.015226 -0.0500275 0.1169
-0.0155013 -0.0500275 0.1169
-0.0157766 -0.0500275 0.1169
-0.0160519 -0.0500275 0.1169
-0.0177954 -0.0536223 0.1253
-0.018076 -0.0535795 0.1252
-0.0183562 -0.0535367 0.1251
-0.018606 -0.0534084 0.1248
-0.0188999 -0.0534084 0.1248
-0.0191784 -0.0533656 0.1247
-0.019394 -0.0531516 0.1242
-0.0200272 -0.05328 0.1245
-0.020304 -0.0532372 0.1244
-0.0205804 -0.0531944 0.1243
-0.0208563 -0.0531516 0.1242
-0.0211318 -0.0531088 0.1241
-0.0213895 -0.0530232 0.1239
-0.0216287 -0.0528948 0.1236
-0.0219021 -0.052852 0.1235
-0.0221569 -0.0527664 0.1233
-0.0224109 -0.0526808 0.1231
-0.0226639 -0.0525952 0.1229
-0.0229346 -0.0525525 0.1228
-0.023186 -0.0524669 0.1226
-0.0234555 -0.0524241 0.1225
-0.0237246 -0.0523813 0.1224
-0.0240324 -0.0524241 0.1225
-0.0242812 -0.0523385 0.1223
-0.0245692 -0.0523385 0.1223
-0.0248572 -0.0523385 0.1223
-0.0251246 -0.0522957 0.1222
-0.0254332 -0.0523385 0.1223
-0.0257422 -0.0523813 0.1224
-0.0260092 -0.0523385 0.1223
-0.0262972 -0.0523385 0.1223
-0.0265634 -0.0522957 0.1222
-0.0335077 -0.0528092 0.1234
-0.0339078 -0.0529804 0.1238
-0.0343375 -0.0531944 0.1243
-0.0347138 -0.0533228 0.1246
-0.0351758 -0.0535795 0.1252
-0.052977 -0.0490432 0.1146
-0.0532468 -0.0490432 0.1146
-0.0536101 -0.0491288 0.1148
-0.0538804 -0.0491288 0.1148
-0.0541979 -0.0491716 0.1149
-0.0544685 -0.0491716 0.1149
-0.0547391 -0.0491716 0.1149
-0.0550575 -0.0492144 0.115
-0.0553764 -0.0492572 0.1151
-0.0556475 -0.0492572 0.1151
-0.0559185 -0.0492572 0.1151
-0.0561407 -0.0492144 0.115
-0.0564115 -0.0492144 0.115
-0.0566823 -0.0492144 0.115
-0.0569531 -0.0492144 0.115
-0.0572239 -0.0492144 0.115
-0.0574947 -0.0492144 0.115
-0.0577153 -0.0491716 0.1149
-0.0579859 -0.0491716 0.1149
-0.0582565 -0.0491716 0.1149
-0.058578 -0.0492144 0.115
-0.0588488 -0.0492144 0.115
-0.0591196 -0.0492144 0.115
-0.0593904 -0.0492144 0.115
-0.0596612 -0.0492144 0.115
-0.0599841 -0.0492572 0.1151
-0.0602551 -0.0492572 0.1151
-0.0605788 -0.0493 0.1152
-0.0609029 -0.0493428 0.1153
-0.0612274 -0.0493856 0.1154
-0.0638843 -0.0477166 0.1115
-0.0640318 -0.047631 0.1113
-0.0642939 -0.047631 0.1113
-0.064672 -0.0477166 0.1115
-0.0649346 -0.0477166 0.1115
-0.0651971 -0.0477166 0.1115
-0.0655184 -0.0477594 0.1116
-0.0658401 -0.0478022 0.1117
-0.066044 -0.0477594 0.1116
-0.066188 -0.0476738 0.1114
-0.0665099 -0.0477166 0.1115
-0.0667725 -0.0477166 0.1115
-0.0669749 -0.0476738 0.1114
-0.0672373 -0.0476738 0.1114
-0.0674996 -0.0476738 0.1114
-0.0677011 -0.047631 0.1113
-0.0678411 -0.0475454 0.1111
-0.0681027 -0.0475454 0.1111
-0.0682412 -0.0474598 0.1109
-0.0688255 -0.0475026 0.111
-0.0690869 -0.0475026 0.111
-0.0523466 -0.0296998 0.0694
-0.053053 -0.0299138 0.0699
-0.053446 -0.0300422 0.0702
-0.053764 -0.0301278 0.0704
-0.054083 -0.0302134 0.0706
-0.0543261 -0.0302562 0.0707
-0.0545697 -0.030299 0.0708
-0.0547364 -0.030299 0.0708
-0.0549031 -0.030299 0.0708
-0.0550698 -0.030299 0.0708
-0.0553146 -0.0303418 0.0709
-0.0554815 -0.0303418 0.0709
-0.0556485 -0.0303418 0.0709
0.0815177 -0.0598986 0.1392
0.0541425 -0.0586508 0.1363
0.0537031 -0.0585217 0.136
0.0515654 -0.0579192 0.1346
0.0511723 -0.0578332 0.1344
0.0507802 -0.0577471 0.1342
0.0503513 -0.057618 0.1339
0.0499613 -0.057532 0.1337
0.0489801 -0.0574889 0.1336
0.0486291 -0.0574459 0.1335
0.0482423 -0.0573598 0.1333
0.0464978 -0.0571447 0.1328
0.0461503 -0.0571017 0.1327
0.0458723 -0.0571447 0.1328
0.0456626 -0.0572738 0.1331
0.0453832 -0.0573168 0.1332
0.0451034 -0.0573598 0.1333
0.0448903 -0.0574889 0.1336
0.0447091 -0.0576611 0.134
0.0445592 -0.0578762 0.1345
0.044407 -0.0580914 0.135
0.0443177 -0.0583926 0.1357
0.0442251 -0.0586938 0.1364
0.0440648 -0.0589089 0.1369
0.0439661 -0.0592102 0.1376
0.0438007 -0.0594253 0.1381
0.0435699 -0.0595544 0.1384
0.0433378 -0.0596835 0.1387
0.0430732 -0.0597696 0.1389
0.0427461 -0.0597696 0.1389
0.042419 -0.0597696 0.1389
0.0420919 -0.0597696 0.1389
0.0417949 -0.0598126 0.139
0.0414378 -0.0597696 0.1389
0.0400428 -0.0596405 0.1386
0.0371321 -0.0596835 0.1387
0.0369382 -0.0598986 0.1392
0.0367156 -0.0600708 0.1396
0.0364651 -0.0601999 0.1399
0.0362131 -0.0603289 0.1402
0.0359086 -0.060372 0.1403
0.0355782 -0.060372 0.1403
0.0352729 -0.060415 0.1404
0.0349423 -0.060415 0.1404
0.0346117 -0.060415 0.1404
0.0342322 -0.0603289 0.1402
0.0338537 -0.0602429 0.14
0.0334762 -0.0601568 0.1398
0.0330758 -0.0600277 0.1395
0.0326534 -0.0598556 0.1391
0.0277764 -0.0572307 0.133
0.02736 -0.0570156 0.1325
0.0270275 -0.0569726 0.1324
0.0266956 -0.0569295 0.1323
0.026384 -0.0569295 0.1323
0.0260725 -0.0569295 0.1323
0.0257804 -0.0569726 0.1324
0.0255071 -0.0570586 0.1326
0.0252329 -0.0571447 0.1328
0.0249201 -0.0571447 0.1328
0.024626 -0.0571877 0.1329
0.024313 -0.0571877 0.1329
0.0239639 -0.0571017 0.1327
0.0236336 -0.0570586 0.1326
0.0233038 -0.0570156 0.1325
0.0229918 -0.0570156 0.1325
0.0226455 -0.0569295 0.1323
0.0222833 -0.0568004 0.132
0.0219392 -0.0567144 0.1318
0.0215796 -0.0565853 0.1315
0.0212538 -0.0565423 0.1314
0.0202172 -0.056241 0.1307
0.0198638 -0.056112 0.1304
0.0195417 -0.0560689 0.1303
0.0192349 -0.0560689 0.1303
0.0189426 -0.056112 0.1304
0.0186355 -0.056112 0.1304
0.0183284 -0.056112 0.1304
0.0180352 -0.056155 0.1305
0.0177279 -0.056155 0.1305
0.0174473 -0.056241 0.1307
0.0160661 -0.0579192 0.1346
0.0158194 -0.0581774 0.1352
0.0155583 -0.0583926 0.1357
0.0152837 -0.0585647 0.1361
0.0149962 -0.0586938 0.1364
0.014675 -0.0586938 0.1364
0.0127145 -0.0571017 0.1327
0.0123646 -0.0569295 0.1323
0.0120349 -0.0568435 0.1321
0.0117238 -0.0568435 0.1321
0.0113955 -0.0567574 0.1319
0.0110765 -0.0567144 0.1318
0.0107497 -0.0566283 0.1316
0.010424 -0.0565423 0.1314
0.0101069 -0.0564992 0.1313
0.00978276 -0.0564132 0.1311
0.00946681 -0.0563701 0.131
0.00913736 -0.056241 0.1307
0.00880932 -0.056112 0.1304
0.00785182 -0.0558538 0.1298
0.00753454 -0.0557677 0.1296
0.00720704 -0.0555956 0.1292
0.00689746 -0.0555525 0.1291
0.00659345 -0.0555525 0.1291
0.00628944 -0.0555525 0.1291
0.00597616 -0.0554665 0.1289
0.00567263 -0.0554665 0.1289
0.0053566 -0.0553374 0.1286
0.00504198 -0.0552083 0.1283
0.00472508 -0.0550362 0.1279
0.00441352 -0.0549071 0.1276
0.00410338 -0.054778 0.1273
0.00379763 -0.0546919 0.1271
0.00349283 -0.0546059 0.1269
0.00318897 -0.0545198 0.1267
0.00288377 -0.0543907 0.1264
0.00258612 -0.0543907 0.1264
0.00228666 -0.0543477 0.1263
0.00198767 -0.0543047 0.1262
0.0016905 -0.0543047 0.1262
0.00139332 -0.0543047 0.1262
0.00109614 -0.0543047 0.1262
0.000798964 -0.0543047 0.1262
0.000502184 -0.0543477 0.1263
0.000204933 -0.0543907 0.1264
-9.27154e-05 -0.0543907 0.1264
-0.000391599 -0.0545628 0.1268
-0.000691823 -0.0546919 0.1271
-0.00099268 -0.054778 0.1273
-0.00129651 -0.0549501 0.1277
-0.00160222 -0.0551222 0.1281
-0.00190982 -0.0552944 0.1285
-0.00314447 -0.0557247 0.1295
-0.00345209 -0.0557677 0.1296
-0.00375727 -0.0557677 0.1296
-0.00406246 -0.0557677 0.1296
-0.00437438 -0.0558538 0.1298
-0.00621016 -0.0508622 0.1182
-0.0064885 -0.0508622 0.1182
-0.00975824 -0.0535301 0.1244
-0.0100673 -0.0536162 0.1246
-0.0103691 -0.0536592 0.1247
-0.011757 -0.0507762 0.118
-0.0120349 -0.0507762 0.118
-0.0123023 -0.0507331 0.1179
-0.01258 -0.0507331 0.1179
-0.0128467 -0.0506901 0.1178
-0.0131241 -0.0506901 0.1178
-0.0134015 -0.0506901 0.1178
-0.013644 -0.050561 0.1175
-0.0139207 -0.050561 0.1175
-0.0141853 -0.050518 0.1174
-0.0144372 -0.0504319 0.1172
-0.0147006 -0.0503889 0.1171
-0.0149635 -0.0503458 0.117
-0.015226 -0.0503028 0.1169
-0.0155013 -0.0503028 0.1169
-0.0157631 -0.0502598 0.1168
-0.0175283 -0.0540034 0.1255
-0.0177954 -0.0539174 0.1253
-0.018076 -0.0538744 0.1252
-0.0183562 -0.0538313 0.1251
-0.0186359 -0.0537883 0.125
-0.0188999 -0.0537022 0.1248
-0.0191784 -0.0536592 0.1247
-0.0194721 -0.0536592 0.1247
-0.0197499 -0.0536162 0.1246
-0.0200272 -0.0535731 0.1245
-0.0202877 -0.0534871 0.1243
-0.0205804 -0.0534871 0.1243
-0.0208395 -0.053401 0.1241
-0.0211147 -0.053358 0.124
-0.0213722 -0.0532719 0.1238
-0.0216287 -0.0531859 0.1236
-0.0218843 -0.0530998 0.1234
-0.022139 -0.0530137 0.1232
-0.0223927 -0.0529277 0.123
-0.0226454 -0.0528416 0.1228
-0.0229159 -0.0527986 0.1227
-0.023186 -0.0527556 0.1226
-0.0234747 -0.0527556 0.1226
-0.023744 -0.0527125 0.1225
-0.0240324 -0.0527125 0.1225
-0.0243209 -0.0527125 0.1225
-0.0245893 -0.0526695 0.1224
-0.0248572 -0.0526265 0.1223
-0.0251452 -0.0526265 0.1223
-0.0254332 -0.0526265 0.1223
-0.0257422 -0.0526695 0.1224
-0.0260304 -0.0526695 0.1224
-0.0262972 -0.0526265 0.1223
-0.0265634 -0.0525834 0.1222
-0.0268072 -0.0524974 0.122
-0.0270723 -0.0524543 0.1219
-0.027292 -0.0523253 0.1216
-0.027533 -0.0522392 0.1214
-0.027796 -0.0521962 0.1213
-0.0280816 -0.0521962 0.1213
-0.0282971 -0.0520671 0.121
-0.0285112 -0.051938 0.1207
-0.0288869 -0.0515937 0.1199
-0.0292665 -0.0517659 0.1203
-0.0296726 -0.051981 0.1208
-0.0298827 -0.0518519 0.1205
-0.052977 -0.0493131 0.1146
-0.0532933 -0.0493561 0.1147
-0.0535634 -0.0493561 0.1147
-0.0538804 -0.0493992 0.1148
-0.0541508 -0.0493992 0.1148
-0.0544685 -0.0494422 0.1149
-0.0547391 -0.0494422 0.1149
-0.0550575 -0.0494852 0.115
-0.0553283 -0.0494852 0.115
-0.0556475 -0.0495283 0.1151
-0.0559185 -0.0495283 0.1151
-0.0561407 -0.0494852 0.115
-0.0564115 -0.0494852 0.115
-0.0566823 -0.0494852 0.115
-0.0569531 -0.0494852 0.115
-0.0572239 -0.0494852 0.115
-0.0574448 -0.0494422 0.1149
-0.0576149 -0.0493561 0.1147
-0.0579859 -0.0494422 0.1149
-0.0582565 -0.0494422 0.1149
-0.0584761 -0.0493992 0.1148
-0.0587464 -0.0493992 0.1148
-0.0589653 -0.0493561 0.1147
-0.0592354 -0.0493561 0.1147
-0.0596612 -0.0494852 0.115
-0.0599841 -0.0495283 0.1151
-0.0602551 -0.0495283 0.1151
-0.0605788 -0.0495713 0.1152
-0.0609029 -0.0496143 0.1153
-0.0612274 -0.0496574 0.1154
-0.0635076 -0.0478931 0.1113
-0.0637124 -0.0478501 0.1112
-0.0638592 -0.047764 0.111
-0.0640629 -0.047721 0.1109
-0.064382 -0.047764 0.111
-0.0647016 -0.047807 0.1111
-0.0649048 -0.047764 0.111
-0.0652249 -0.047807 0.1111
-0.0654865 -0.047807 0.1111
-0.0656889 -0.047764 0.111
-0.0658909 -0.047721 0.1109
-0.066152 -0.047721 0.1109
-0.0664132 -0.047721 0.1109
-0.0666743 -0.047721 0.1109
-0.0669355 -0.047721 0.1109
-0.0671966 -0.047721 0.1109
-0.0674578 -0.047721 0.1109
-0.0676579 -0.0476779 0.1108
-0.0678575 -0.0476349 0.1107
-0.0681182 -0.0476349 0.1107
-0.0690869 -0.047764 0.111
-0.0528884 -0.0300784 0.0699
-0.0532048 -0.0301645 0.0701
-0.0535983 -0.0302936 0.0704
-0.0538404 -0.0303366 0.0705
-0.0541596 -0.0304227 0.0707
-0.054403 -0.0304657 0.0708
-0.0545697 -0.0304657 0.0708
-0.0547364 -0.0304657 0.0708
-0.0549031 -0.0304657 0.0708
-0.0550698 -0.0304657 0.0708
-0.0552366 -0.0304657 0.0708
-0.0554033 -0.0304657 0.0708
-0.0556485 -0.0305087 0.0709
-0.0558154 -0.0305087 0.0709
0.0542637 -0.0587554 0.1358
0.0538644 -0.0586689 0.1356
0.0534266 -0.0585391 0.1353
0.0529903 -0.0584093 0.135
0.0525553 -0.0582795 0.1347
0.0521994 -0.0582362 0.1346
0.0518053 -0.0581497 0.1344
0.0513739 -0.0580199 0.1341
0.05102 -0.0579766 0.134
0.0506667 -0.0579333 0.1339
0.0503513 -0.0579333 0.1339
0.0499613 -0.0578468 0.1337
0.0496836 -0.0578901 0.1338
0.0494054 -0.0579333 0.1339
0.0490534 -0.0578901 0.1338
0.0487384 -0.0578901 0.1338
0.0484233 -0.0578901 0.1338
0.0480723 -0.0578468 0.1337
0.0477574 -0.0578468 0.1337
0.0474781 -0.0578901 0.1338
0.0471277 -0.0578468 0.1337
0.0468129 -0.0578468 0.1337
0.0464633 -0.0578035 0.1336
0.0461832 -0.0578468 0.1337
0.0458684 -0.0578468 0.1337
0.0455876 -0.0578901 0.1338
0.0453064 -0.0579333 0.1339
0.0450247 -0.0579766 0.134
0.0448092 -0.0581064 0.1343
0.0445924 -0.0582362 0.1346
0.0444399 -0.0584525 0.1351
0.0443177 -0.0587121 0.1357
0.0442251 -0.059015 0.1364
0.0440648 -0.0592313 0.1369
0.0439661 -0.0595342 0.1376
0.0438007 -0.0597505 0.1381
0.0435699 -0.0598803 0.1384
0.0433378 -0.0600101 0.1387
0.0430422 -0.0600534 0.1388
0.0427461 -0.0600966 0.1389
0.0424496 -0.0601399 0.139
0.0421222 -0.0601399 0.139
0.0417949 -0.0601399 0.139
0.0414378 -0.0600966 0.1389
0.0400139 -0.0599236 0.1385
0.0395731 -0.0597505 0.1381
0.0378647 -0.0596207 0.1378
0.0373507 -0.059837 0.1383
0.0370786 -0.0599236 0.1385
0.0368851 -0.0601399 0.139
0.036663 -0.060313 0.1394
0.0364129 -0.0604428 0.1397
0.0355021 -0.0605726 0.14
0.0351976 -0.0606158 0.1401
0.0348677 -0.0606158 0.1401
0.0344884 -0.0605293 0.1399
0.0341102 -0.0604428 0.1397
0.033757 -0.0603995 0.1396
0.0333325 -0.0602264 0.1392
0.0312837 -0.0594476 0.1374
0.0308926 -0.0593178 0.1371
0.0304359 -0.0590583 0.1365
0.0300483 -0.0589284 0.1362
0.0295748 -0.0586256 0.1355
0.0290614 -0.0582362 0.1346
0.0285309 -0.0578035 0.1336
0.0280896 -0.0575439 0.133
0.0277764 -0.0575439 0.133
0.0273806 -0.0573709 0.1326
0.0270071 -0.0572411 0.1323
0.0266754 -0.0571978 0.1322
0.026384 -0.0572411 0.1323
0.0260725 -0.0572411 0.1323
0.0257609 -0.0572411 0.1323
0.0255071 -0.0573709 0.1326
0.0252329 -0.0574574 0.1328
0.0249201 -0.0574574 0.1328
0.0246074 -0.0574574 0.1328
0.0242947 -0.0574574 0.1328
0.0239459 -0.0573709 0.1326
0.023598 -0.0572843 0.1324
0.023251 -0.0571978 0.1322
0.0226113 -0.0571545 0.1321
0.0222327 -0.0569815 0.1317
0.0218893 -0.0568949 0.1315
0.0215632 -0.0568517 0.1314
0.0212376 -0.0568084 0.1313
0.0208806 -0.0566786 0.131
0.0198638 -0.056419 0.1304
0.0195417 -0.0563758 0.1303
0.0192201 -0.0563325 0.1302
0.0189135 -0.0563325 0.1302
0.0186212 -0.0563758 0.1303
0.0183284 -0.056419 0.1304
0.0180214 -0.056419 0.1304
0.0177143 -0.056419 0.1304
0.0174206 -0.0564623 0.1305
0.0171395 -0.0565488 0.1307
0.016909 -0.0568084 0.1313
0.0167009 -0.0571545 0.1321
0.0164891 -0.0575007 0.1329
0.0162614 -0.0578035 0.1336
0.0160423 -0.0581497 0.1344
0.0157843 -0.058366 0.1349
0.0155125 -0.0585391 0.1353
0.0152163 -0.0586256 0.1355
0.0149412 -0.0587986 0.1359
0.0145889 -0.0586689 0.1356
0.012657 -0.0571545 0.1321
0.0123179 -0.0570247 0.1318
0.0119893 -0.0569382 0.1316
0.0113523 -0.0568517 0.1314
0.011026 -0.0567651 0.1312
0.0107089 -0.0567219 0.1311
0.0103843 -0.0566353 0.1309
0.0100761 -0.0566353 0.1309
0.00976037 -0.0565921 0.1308
0.00945959 -0.0566353 0.1309
0.00913736 -0.0565488 0.1307
0.00882959 -0.0565488 0.1307
0.00851529 -0.0565055 0.1306
0.00819518 -0.056419 0.1304
0.00787602 -0.0563325 0.1302
0.00755198 -0.0562027 0.1299
0.00723493 -0.0561161 0.1297
0.00691349 -0.0559864 0.1294
0.00660877 -0.0559864 0.1294
0.00629919 -0.0559431 0.1293
0.00598544 -0.0558566 0.1291
0.00567263 -0.05577 0.1289
0.00536076 -0.0556835 0.1287
0.00504984 -0.055597 0.1285
0.00473616 -0.0554672 0.1282
0.00411627 -0.0552508 0.1277
0.00380958 -0.0551643 0.1275
0.00350384 -0.0550778 0.1273
0.00319904 -0.0549912 0.1271
0.00289518 -0.0549047 0.1269
0.00259635 -0.0549047 0.1269
0.00229572 -0.0548614 0.1268
0.00199397 -0.0547749 0.1266
0.00169452 -0.0547316 0.1265
0.00139442 -0.0546451 0.1263
0.00109614 -0.0546018 0.1262
0.000798964 -0.0546018 0.1262
0.000501787 -0.0546018 0.1262
0.000204609 -0.0546018 0.1262
-9.25687e-05 -0.0546018 0.1262
-0.000390982 -0.0547749 0.1266
-0.000690734 -0.0549047 0.1269
-0.00129448 -0.0551643 0.1275
-0.00159972 -0.0553374 0.1279
-0.00190833 -0.0555537 0.1284
-0.00221586 -0.0556835 0.1287
-0.00252675 -0.0558566 0.1291
-0.00284172 -0.0560729 0.1296
-0.00315176 -0.0561594 0.1298
-0.00346274 -0.0562459 0.13
-0.00377467 -0.0563325 0.1302
-0.00408753 -0.056419 0.1304
-0.0043946 -0.056419 0.1304
-0.00677257 -0.0511838 0.1183
-0.00705114 -0.0511838 0.1183
-0.00732971 -0.0511838 0.1183
-0.0117471 -0.0510108 0.1179
-0.0120349 -0.051054 0.118
-0.0123128 -0.051054 0.118
-0.0125906 -0.051054 0.118
-0.0128794 -0.0510973 0.1181
-0.0131464 -0.051054 0.118
-0.0134129 -0.0510108 0.1179
-0.0136673 -0.0509242 0.1177
-0.0139326 -0.0508809 0.1176
-0.0147006 -0.0506646 0.1171
-0.0166947 -0.054472 0.1259
-0.0169777 -0.0544288 0.1258
-0.0172465 -0.0543422 0.1256
-0.0175283 -0.054299 0.1255
-0.0178096 -0.0542557 0.1254
-0.0180905 -0.0542124 0.1253
-0.0183562 -0.0541259 0.1251
-0.0186508 -0.0541259 0.1251
-0.0189151 -0.0540394 0.1249
-0.0191938 -0.0539961 0.1248
-0.0194565 -0.0539096 0.1246
-0.0197499 -0.0539096 0.1246
-0.0200272 -0.0538663 0.1245
-0.0202877 -0.0537798 0.1243
-0.0205473 -0.0536933 0.1241
-0.0208227 -0.05365 0.124
-0.0210807 -0.0535634 0.1238
-0.0213377 -0.0534769 0.1236
-0.0215937 -0.0533904 0.1234
-0.0218666 -0.0533471 0.1233
-0.022121 -0.0532606 0.1231
-0.0223745 -0.0531741 0.1229
-0.0226454 -0.0531308 0.1228
-0.0228973 -0.0530443 0.1226
-0.023167 -0.053001 0.1225
-0.0234555 -0.053001 0.1225
-0.023744 -0.053001 0.1225
-0.0240128 -0.0529577 0.1224
-0.0243209 -0.053001 0.1225
-0.0245893 -0.0529577 0.1224
-0.0248572 -0.0529145 0.1223
-0.0251452 -0.0529145 0.1223
-0.0254332 -0.0529145 0.1223
-0.0257212 -0.0529145 0.1223
-0.0259879 -0.0528712 0.1222
-0.0262326 -0.0527847 0.122
-0.0265199 -0.0527847 0.122
-0.0267852 -0.0527414 0.1219
-0.0270279 -0.0526549 0.1217
-0.0272696 -0.0525683 0.1215
-0.027533 -0.0525251 0.1214
-0.0277501 -0.0523953 0.1211
-0.0279427 -0.0522222 0.1207
-0.0281802 -0.0521357 0.1205
-0.028393 -0.0520059 0.1202
-0.0286522 -0.0519626 0.1201
-0.0288869 -0.0518761 0.1199
-0.0291449 -0.0518328 0.1198
-0.0294024 -0.0517895 0.1197
-0.0297091 -0.0518328 0.1198
-0.0300162 -0.0518761 0.1199
-0.0303491 -0.0519626 0.1201
-0.0307084 -0.0520924 0.1204
-0.0310692 -0.0522222 0.1207
-0.0314833 -0.0524385 0.1212
-0.0318211 -0.0525251 0.1214
-0.0321599 -0.0526116 0.1216
-0.0325263 -0.0527414 0.1219
-0.0328941 -0.0528712 0.1222
-0.0332633 -0.053001 0.1225
-0.0336339 -0.0531308 0.1228
-0.034006 -0.0532606 0.1231
-0.0343794 -0.0533904 0.1234
-0.0348948 -0.0537365 0.1242
-0.052977 -0.049583 0.1146
-0.0532468 -0.049583 0.1146
-0.0535634 -0.0496262 0.1147
-0.0538335 -0.0496262 0.1147
-0.0541036 -0.0496262 0.1147
-0.0544211 -0.0496695 0.1148
-0.0547391 -0.0497128 0.1149
-0.0550096 -0.0497128 0.1149
-0.0552802 -0.0497128 0.1149
-0.0555991 -0.049756 0.115
-0.0558699 -0.049756 0.115
-0.0561407 -0.049756 0.115
-0.0564115 -0.049756 0.115
-0.0566823 -0.049756 0.115
-0.0569531 -0.049756 0.115
-0.0572239 -0.049756 0.115
-0.0574448 -0.0497128 0.1149
-0.0576149 -0.0496262 0.1147
-0.057784 -0.0495397 0.1145
-0.0580536 -0.0495397 0.1145
-0.0583742 -0.049583 0.1146
-0.0586441 -0.049583 0.1146
-0.0588625 -0.0495397 0.1145
-0.0590805 -0.0494964 0.1144
-0.0595055 -0.0496262 0.1147
-0.0599841 -0.0497993 0.1151
-0.0602551 -0.0497993 0.1151
-0.0605788 -0.0498426 0.1152
-0.0609029 -0.0498858 0.1153
-0.0611744 -0.0498858 0.1153
-0.0640051 -0.0479389 0.1108
-0.064266 -0.0479389 0.1108
-0.0645269 -0.0479389 0.1108
-0.0657721 -0.0478956 0.1107
-0.0660327 -0.0478956 0.1107
-0.0662335 -0.0478523 0.1106
-0.0670149 -0.0478523 0.1106
-0.0672145 -0.0478091 0.1105
-0.0674747 -0.0478091 0.1105
-0.0676736 -0.0477658 0.1104
-0.0679336 -0.0477658 0.1104
-0.0681935 -0.0477658 0.1104
-0.0685775 -0.0478523 0.1106
-0.0539168 -0.0305459 0.0706
-0.0541596 -0.0305891 0.0707
-0.0543261 -0.0305891 0.0707
-0.0544926 -0.0305891 0.0707
-0.0547364 -0.0306324 0.0708
-0.0549031 -0.0306324 0.0708
-0.0549921 -0.0305891 0.0707
-0.0552366 -0.0306324 0.0708
-0.0554033 -0.0306324 0.0708
-0.05557 -0.0306324 0.0708
-0.0558154 -0.0306757 0.0709
-0.0559824 -0.0306757 0.0709
-0.0561494 -0.0306757 0.0709
0.0534672 -0.0585532 0.1346
0.0531502 -0.0585532 0.1346
0.0527548 -0.0584661 0.1344
0.0524383 -0.0584661 0.1344
0.052083 -0.0584226 0.1343
0.0516897 -0.0583356 0.1341
0.0513739 -0.0583356 0.1341
0.05102 -0.0582921 0.134
0.0506667 -0.0582486 0.1339
0.0503513 -0.0582486 0.1339
0.050036 -0.0582486 0.1339
0.0497207 -0.0582486 0.1339
0.0494054 -0.0582486 0.1339
0.0490901 -0.0582486 0.1339
0.0487748 -0.0582486 0.1339
0.0484595 -0.0582486 0.1339
0.0468129 -0.0581616 0.1337
0.0464981 -0.0581616 0.1337
0.0461832 -0.0581616 0.1337
0.0458684 -0.0581616 0.1337
0.0455876 -0.0582051 0.1338
0.0453064 -0.0582486 0.1339
0.0450583 -0.0583356 0.1341
0.0447759 -0.0583791 0.1342
0.0446255 -0.0585967 0.1347
0.044407 -0.0587272 0.135
0.044285 -0.0589882 0.1356
0.0441278 -0.0592057 0.1361
0.0440327 -0.0595102 0.1368
0.0438383 -0.0596842 0.1372
0.0437055 -0.0599452 0.1378
0.0434755 -0.0600757 0.1381
0.0432753 -0.0602497 0.1385
0.0430112 -0.0603367 0.1387
0.0427153 -0.0603802 0.1388
0.0423885 -0.0603802 0.1388
0.0420616 -0.0603802 0.1388
0.0417348 -0.0603802 0.1388
0.0414079 -0.0603802 0.1388
0.0380229 -0.0596842 0.1372
0.0377273 -0.0597277 0.1373
0.0374857 -0.0598582 0.1376
0.0372157 -0.0599452 0.1378
0.036918 -0.0599887 0.1379
0.0366994 -0.0601627 0.1383
0.0364789 -0.0603367 0.1387
0.0362305 -0.0604672 0.139
0.0346934 -0.0606412 0.1394
0.0343405 -0.0605977 0.1393
0.0339881 -0.0605542 0.1392
0.0335636 -0.0603802 0.1388
0.0331888 -0.0602932 0.1386
0.0323717 -0.0599887 0.1379
0.0319308 -0.0597712 0.1374
0.0315383 -0.0596407 0.1371
0.0311471 -0.0595102 0.1368
0.0307574 -0.0593797 0.1365
0.0303245 -0.0591622 0.136
0.029938 -0.0590317 0.1357
0.0295312 -0.0588577 0.1353
0.0290182 -0.0584661 0.1344
0.0284455 -0.0579441 0.1332
0.0280262 -0.0577266 0.1327
0.0276302 -0.0575526 0.1323
0.0272361 -0.0573786 0.1319
0.0268642 -0.0572481 0.1316
0.0265543 -0.0572481 0.1316
0.025334 -0.0572916 0.1317
0.0250619 -0.0573786 0.1319
0.0247325 -0.0573351 0.1318
0.0244592 -0.0574221 0.132
0.0241666 -0.0574656 0.1321
0.0238375 -0.0574221 0.132
0.0225428 -0.0572916 0.1317
0.0221989 -0.0572046 0.1315
0.0218726 -0.0571611 0.1314
0.0215468 -0.0571176 0.1313
0.020525 -0.0568566 0.1307
0.0201863 -0.0567696 0.1305
0.0198485 -0.0566826 0.1303
0.0195267 -0.0566391 0.1302
0.0192053 -0.0565956 0.1301
0.0189135 -0.0566391 0.1302
0.0186069 -0.0566391 0.1302
0.0183003 -0.0566391 0.1302
0.0180075 -0.0566826 0.1303
0.0177143 -0.0567261 0.1304
0.0174072 -0.0567261 0.1304
0.0171395 -0.0568566 0.1307
0.0169219 -0.0571611 0.1314
0.0167262 -0.0575526 0.1323
0.0165139 -0.0579006 0.1331
0.0162857 -0.0582051 0.1338
0.015796 -0.0587272 0.135
0.015501 -0.0588142 0.1352
0.0151939 -0.0588577 0.1353
0.0148973 -0.0589447 0.1355
0.0145567 -0.0588577 0.1353
0.0126091 -0.0572481 0.1316
0.0122712 -0.0571176 0.1313
0.0119347 -0.0569871 0.131
0.0116173 -0.0569436 0.1309
0.0113091 -0.0569436 0.1309
0.0106517 -0.0567261 0.1304
0.0103367 -0.0566826 0.1303
0.0100376 -0.0567261 0.1304
0.00973052 -0.0567261 0.1304
0.00942346 -0.0567261 0.1304
0.00911639 -0.0567261 0.1304
0.00881608 -0.0567696 0.1305
0.00850877 -0.0567696 0.1305
0.00819518 -0.0567261 0.1304
0.00787602 -0.0566391 0.1302
0.00755779 -0.0565521 0.13
0.00723493 -0.0564216 0.1297
0.00692417 -0.0563781 0.1296
0.00660877 -0.0562911 0.1294
0.00629919 -0.0562476 0.1293
0.00599007 -0.0562041 0.1292
0.00567703 -0.0561171 0.129
0.00536076 -0.0559866 0.1287
0.00504984 -0.0558996 0.1285
0.00473986 -0.0558126 0.1283
0.00443081 -0.0557255 0.1281
0.00412272 -0.0556385 0.1279
0.00381556 -0.0555515 0.1277
0.00350934 -0.0554645 0.1275
0.00320407 -0.0553775 0.1273
0.00290202 -0.055334 0.1272
0.00260044 -0.0552905 0.1271
0.00229934 -0.055247 0.127
0.00199713 -0.05516 0.1268
0.00169452 -0.0550295 0.1265
0.00139332 -0.054899 0.1262
0.00109527 -0.0548555 0.1261
0.000797065 -0.0547685 0.1259
0.000500594 -0.0547685 0.1259
0.000204123 -0.0547685 0.1259
-9.22753e-05 -0.054725 0.1258
-0.000389746 -0.054899 0.1262
-0.000688013 -0.054986 0.1264
-0.00159222 -0.0553775 0.1273
-0.0019009 -0.0556385 0.1279
-0.00220725 -0.055769 0.1282
-0.00251892 -0.0559866 0.1287
-0.00283295 -0.0562041 0.1292
-0.0031469 -0.0563781 0.1296
-0.00345741 -0.0564651 0.1298
-0.00377177 -0.0565956 0.1301
-0.00408753 -0.0567261 0.1304
-0.00440471 -0.0568566 0.1307
-0.0128903 -0.0514189 0.1182
-0.0131686 -0.0514189 0.1182
-0.013447 -0.0514189 0.1182
-0.0166947 -0.0547685 0.1259
-0.0169777 -0.054725 0.1258
-0.0172465 -0.054638 0.1256
-0.0175283 -0.0545945 0.1255
-0.0178238 -0.0545945 0.1255
-0.0180905 -0.0545075 0.1253
-0.0183562 -0.0544205 0.1251
-0.0186359 -0.054377 0.125
-0.0189151 -0.0543335 0.1249
-0.0191938 -0.05429 0.1248
-0.0194721 -0.0542465 0.1247
-0.0197499 -0.054203 0.1246
-0.0200272 -0.0541595 0.1245
-0.0202877 -0.0540725 0.1243
-0.0205473 -0.0539855 0.1241
-0.020806 -0.0538985 0.1239
-0.0210807 -0.053855 0.1238
-0.0213377 -0.053768 0.1236
-0.0215762 -0.0536375 0.1233
-0.0218489 -0.053594 0.1232
-0.022103 -0.053507 0.123
-0.0223745 -0.0534635 0.1229
-0.022627 -0.0533765 0.1227
-0.0228973 -0.053333 0.1226
-0.023167 -0.0532895 0.1225
-0.0234555 -0.0532895 0.1225
-0.0237246 -0.053246 0.1224
-0.0240324 -0.0532895 0.1225
-0.024301 -0.053246 0.1224
-0.0245893 -0.053246 0.1224
-0.0248572 -0.0532025 0.1223
-0.0251452 -0.0532025 0.1223
-0.0254124 -0.053159 0.1222
-0.0257001 -0.053159 0.1222
-0.0259666 -0.0531155 0.1221
-0.0262326 -0.0530719 0.122
-0.0264982 -0.0530284 0.1219
-0.0267633 -0.0529849 0.1218
-0.0270057 -0.0528979 0.1216
-0.0272471 -0.0528109 0.1214
-0.0275103 -0.0527674 0.1213
-0.0277043 -0.0525934 0.1209
-0.0279427 -0.0525064 0.1207
-0.0281802 -0.0524194 0.1205
-0.028393 -0.0522889 0.1202
-0.0296843 -0.0520714 0.1197
-0.0299662 -0.0520714 0.1197
-0.030248 -0.0520714 0.1197
-0.0305299 -0.0520714 0.1197
-0.0308118 -0.0520714 0.1197
-0.0311456 -0.0521584 0.1199
-0.0315328 -0.0523324 0.1203
-0.0319219 -0.0525064 0.1207
-0.0323128 -0.0526804 0.1211
-0.0326787 -0.0528109 0.1214
-0.0330732 -0.0529849 0.1218
-0.0333874 -0.0530284 0.1219
-0.0337574 -0.053159 0.1222
-0.0341566 -0.053333 0.1226
-0.0345576 -0.053507 0.123
-0.0558699 -0.0500268 0.115
-0.0561407 -0.0500268 0.115
-0.0564115 -0.0500268 0.115
-0.0576326 -0.0496788 0.1142
-0.0585541 -0.0495483 0.1139
-0.0589256 -0.0496353 0.1141
-0.0594018 -0.0498093 0.1145
-0.0633024 -0.0484608 0.1114
-0.0633935 -0.0483303 0.1111
-0.0638895 -0.0481128 0.1106
-0.06415 -0.0481128 0.1106
-0.0644104 -0.0481128 0.1106
-0.0646709 -0.0481128 0.1106
-0.0654522 -0.0481128 0.1106
-0.0656532 -0.0480693 0.1105
-0.0671536 -0.0480258 0.1104
-0.0673526 -0.0479823 0.1103
-0.0676123 -0.0479823 0.1103
-0.067872 -0.0479823 0.1103
-0.0681935 -0.0480258 0.1104
-0.0685775 -0.0481128 0.1106
-0.0690247 -0.0482433 0.1109
-0.0541596 -0.0307556 0.0707
-0.0543261 -0.0307556 0.0707
-0.0549921 -0.0307556 0.0707
-0.0551585 -0.0307556 0.0707
-0.0554033 -0.0307991 0.0708
-0.05557 -0.0307991 0.0708
0.052083 -0.0587389 0.1343
0.0517282 -0.0586952 0.1342
0.0513739 -0.0586514 0.1341
0.0510581 -0.0586514 0.1341
0.0507045 -0.0586077 0.134
0.0503513 -0.058564 0.1339
0.050036 -0.058564 0.1339
0.0497207 -0.058564 0.1339
0.0468829 -0.058564 0.1339
0.0465676 -0.058564 0.1339
0.0462523 -0.058564 0.1339
0.045937 -0.058564 0.1339
0.0456558 -0.0586077 0.134
0.0453741 -0.0586514 0.1341
0.0450919 -0.0586952 0.1342
0.0448426 -0.0587826 0.1344
0.0446255 -0.0589138 0.1347
0.0445057 -0.0591763 0.1353
0.0443177 -0.0593512 0.1357
0.0441603 -0.0595699 0.1362
0.0440005 -0.0597886 0.1367
0.0438383 -0.0600073 0.1372
0.0376448 -0.0599198 0.137
0.0373495 -0.0599635 0.1371
0.0370806 -0.060051 0.1373
0.0367841 -0.0600947 0.1374
0.0365667 -0.0602697 0.1378
0.0363474 -0.0604446 0.1382
0.0361002 -0.0605759 0.1385
0.0357998 -0.0606196 0.1386
0.0355247 -0.0607071 0.1388
0.0352232 -0.0607508 0.1389
0.0349463 -0.0608383 0.1391
0.0346188 -0.0608383 0.1391
0.0342666 -0.0607945 0.139
0.0338904 -0.0607071 0.1388
0.033491 -0.0605759 0.1385
0.033093 -0.0604446 0.1382
0.0326965 -0.0603134 0.1379
0.0323248 -0.060226 0.1377
0.0318611 -0.0599635 0.1371
0.0314692 -0.0598323 0.1368
0.0310788 -0.0597011 0.1365
0.0306898 -0.0595699 0.1362
0.0302799 -0.059395 0.1358
0.0298277 -0.0591325 0.1352
0.0293347 -0.0587826 0.1344
0.0288023 -0.0583453 0.1334
0.0271328 -0.0574705 0.1314
0.0267622 -0.0573393 0.1311
0.0264534 -0.0573393 0.1311
0.0261447 -0.0573393 0.1311
0.025836 -0.0573393 0.1311
0.0255468 -0.057383 0.1312
0.025257 -0.0574268 0.1313
0.0249859 -0.0575143 0.1315
0.024695 -0.057558 0.1316
0.0243851 -0.057558 0.1316
0.0224915 -0.0574705 0.1314
0.0221821 -0.0574705 0.1314
0.0212053 -0.0573393 0.1311
0.0208647 -0.0572518 0.1309
0.0205093 -0.0571206 0.1306
0.0201708 -0.0570332 0.1304
0.0198333 -0.0569457 0.1302
0.0195267 -0.0569457 0.1302
0.0191906 -0.0568582 0.13
0.018899 -0.0569019 0.1301
0.0186069 -0.0569457 0.1302
0.0183144 -0.0569894 0.1303
0.0180214 -0.0570332 0.1304
0.0177143 -0.0570332 0.1304
0.0174206 -0.0570769 0.1305
0.0159826 -0.058564 0.1339
0.0157024 -0.0586952 0.1342
0.0153749 -0.0586514 0.1341
0.0147543 -0.0586952 0.1342
0.0144168 -0.0586077 0.134
0.0140486 -0.058389 0.1335
0.0136622 -0.0580828 0.1328
0.012542 -0.0572518 0.1309
0.0122151 -0.0571644 0.1307
0.0118891 -0.0570769 0.1305
0.0112659 -0.0570332 0.1304
0.0109504 -0.0569894 0.1303
0.0106354 -0.0569457 0.1302
0.0103288 -0.0569457 0.1302
0.0100299 -0.0569894 0.1303
0.0097156 -0.0569457 0.1302
0.00942346 -0.0570332 0.1304
0.00912338 -0.0570769 0.1305
0.00882283 -0.0571206 0.1306
0.00852181 -0.0571644 0.1307
0.00821404 -0.0571644 0.1307
0.00788812 -0.0570332 0.1304
0.00756942 -0.0569457 0.1302
0.00725167 -0.0568582 0.13
0.00693486 -0.0567707 0.1298
0.00661899 -0.0566833 0.1296
0.0063138 -0.0566833 0.1296
0.00600862 -0.0566833 0.1296
0.00569903 -0.0566395 0.1295
0.00538575 -0.056552 0.1293
0.00507342 -0.0564646 0.1291
0.0047768 -0.056552 0.1293
0.00322672 -0.0560709 0.1282
0.00291799 -0.0559397 0.1279
0.00261272 -0.0558523 0.1277
0.00169586 -0.0553711 0.1266
0.00139332 -0.0551962 0.1262
0.00109354 -0.055065 0.1259
0.000795799 -0.0549775 0.1257
0.000499401 -0.0549338 0.1256
0.000203474 -0.05489 0.1255
-9.21286e-05 -0.0549338 0.1256
-0.000388202 -0.0549775 0.1257
-0.000685835 -0.0551087 0.126
-0.000984102 -0.0551962 0.1262
-0.00128534 -0.0553711 0.1266
-0.00158596 -0.0554586 0.1268
-0.00189198 -0.0556773 0.1273
-0.00219864 -0.0558523 0.1277
-0.00251109 -0.0561147 0.1283
-0.00282198 -0.0562896 0.1287
-0.00313476 -0.0564646 0.1291
-0.00345209 -0.0566833 0.1296
-0.00376887 -0.0568582 0.13
-0.0040844 -0.0569894 0.1303
-0.00440471 -0.0571644 0.1307
-0.0123232 -0.0516535 0.1181
-0.012612 -0.0516972 0.1182
-0.0128903 -0.0516972 0.1182
-0.0131464 -0.0516098 0.118
-0.0134242 -0.0516098 0.118
-0.0166947 -0.055065 0.1259
-0.0169777 -0.0550212 0.1258
-0.0172602 -0.0549775 0.1257
-0.0175423 -0.0549338 0.1256
-0.0178238 -0.05489 0.1255
-0.0181049 -0.0548463 0.1254
-0.0183855 -0.0548026 0.1253
-0.0186806 -0.0548026 0.1253
-0.0189454 -0.0547151 0.1251
-0.0192246 -0.0546714 0.125
-0.0195033 -0.0546276 0.1249
-0.0197974 -0.0546276 0.1249
-0.0200754 -0.0545839 0.1248
-0.0203367 -0.0544964 0.1246
-0.0205804 -0.0543652 0.1243
-0.0208395 -0.0542777 0.1241
-0.0210977 -0.0541902 0.1239
-0.0213377 -0.054059 0.1236
-0.0215937 -0.0539716 0.1234
-0.0218666 -0.0539278 0.1233
-0.022121 -0.0538403 0.1231
-0.0223745 -0.0537529 0.1229
-0.0226454 -0.0537091 0.1228
-0.0228973 -0.0536217 0.1226
-0.023186 -0.0536217 0.1226
-0.0234555 -0.0535779 0.1225
-0.0237246 -0.0535342 0.1224
-0.0240128 -0.0535342 0.1224
-0.024301 -0.0535342 0.1224
-0.0245692 -0.0534904 0.1223
-0.0248572 -0.0534904 0.1223
-0.0251246 -0.0534467 0.1222
-0.0254124 -0.0534467 0.1222
-0.0256791 -0.053403 0.1221
-0.0259454 -0.0533592 0.122
-0.0262326 -0.0533592 0.122
-0.0264765 -0.0532718 0.1218
-0.0267413 -0.053228 0.1217
-0.0269835 -0.0531406 0.1215
-0.0272471 -0.0530968 0.1214
-0.027465 -0.0529656 0.1211
-0.0277043 -0.0528781 0.1209
-0.0279196 -0.0527469 0.1206
-0.0281568 -0.0526594 0.1204
-0.028393 -0.052572 0.1202
-0.0286522 -0.0525282 0.1201
-0.030248 -0.0523533 0.1197
-0.0305299 -0.0523533 0.1197
-0.0308118 -0.0523533 0.1197
-0.0311196 -0.052397 0.1198
-0.0314542 -0.0524845 0.12
-0.0317896 -0.052572 0.1202
-0.0321527 -0.0527032 0.1205
-0.0325172 -0.0528344 0.1208
-0.032856 -0.0529219 0.121
-0.0331683 -0.0529656 0.1211
-0.0574642 -0.0500352 0.1144
-0.057763 -0.0495978 0.1134
-0.0582859 -0.0498165 0.1139
-0.0633024 -0.0487231 0.1114
-0.0632794 -0.0485044 0.1109
-0.0633687 -0.0483732 0.1106
-0.0635141 -0.0482857 0.1104
-0.0637163 -0.048242 0.1103
-0.063976 -0.048242 0.1103
-0.0642357 -0.048242 0.1103
-0.0644955 -0.048242 0.1103
-0.0647552 -0.048242 0.1103
-0.0650739 -0.0482857 0.1104
-0.0653339 -0.0482857 0.1104
-0.0655344 -0.048242 0.1103
-0.0658538 -0.0482857 0.1104
-0.0660539 -0.048242 0.1103
-0.0663136 -0.048242 0.1103
-0.0665734 -0.048242 0.1103
-0.0668331 -0.048242 0.1103
-0.0670928 -0.048242 0.1103
-0.0672915 -0.0481983 0.1102
-0.067551 -0.0481983 0.1102
-0.067872 -0.048242 0.1103
-0.0681318 -0.048242 0.1103
-0.0759389 -0.0448742 0.1026
-0.0761805 -0.0448742 0.1026
-0.0764966 -0.044918 0.1027
-0.0767385 -0.044918 0.1027
-0.0770553 -0.0449617 0.1028
-0.0772973 -0.0449617 0.1028
-0.0775394 -0.0449617 0.1028
-0.0535084 -0.0308346 0.0705
-0.0537505 -0.0308784 0.0706
-0.0539931 -0.0309221 0.0707
-0.0541596 -0.0309221 0.0707
-0.0543261 -0.0309221 0.0707
-0.0544926 -0.0309221 0.0707
-0.0546591 -0.0309221 0.0707
-0.0548256 -0.0309221 0.0707
-0.0549921 -0.0309221 0.0707
-0.0551585 -0.0309221 0.0707
-0.055325 -0.0309221 0.0707
-0.0554915 -0.0309221 0.0707
-0.0557367 -0.0309659 0.0708
-0.0558245 -0.0309221 0.0707
0.0465676 -0.0588793 0.1339
0.0462523 -0.0588793 0.1339
0.0459713 -0.0589232 0.134
0.0456898 -0.0589672 0.1341
0.0453741 -0.0589672 0.1341
0.0450919 -0.0590112 0.1342
0.0448426 -0.0590991 0.1344
0.0446255 -0.059231 0.1347
0.0358395 -0.0604623 0.1375
0.0340447 -0.0607261 0.1381
0.0336707 -0.0606382 0.1379
0.0329015 -0.0604183 0.1374
0.0325068 -0.0602864 0.1371
0.032137 -0.0601984 0.1369
0.0317449 -0.0600665 0.1366
0.0313082 -0.0598467 0.1361
0.0308967 -0.0596708 0.1357
0.030487 -0.0594949 0.1353
0.0301015 -0.059363 0.135
0.0270089 -0.0575161 0.1308
0.0266397 -0.0573842 0.1305
0.0263525 -0.0574282 0.1306
0.0231103 -0.0577799 0.1314
0.0227835 -0.057736 0.1313
0.0224572 -0.057692 0.1312
0.0221314 -0.057648 0.1311
0.0218227 -0.057648 0.1311
0.0214976 -0.0576041 0.131
0.0211729 -0.0575601 0.1309
0.0208487 -0.0575161 0.1308
0.0205093 -0.0574282 0.1306
0.0201554 -0.0572963 0.1303
0.0198333 -0.0572523 0.1302
0.0195267 -0.0572523 0.1302
0.0191906 -0.0571643 0.13
0.018899 -0.0572083 0.1301
0.0186069 -0.0572523 0.1302
0.0183144 -0.0572963 0.1303
0.0156322 -0.0587473 0.1336
0.0153061 -0.0587034 0.1335
0.0146554 -0.0586154 0.1333
0.0143092 -0.0584835 0.133
0.0135902 -0.0580878 0.1321
0.013249 -0.0579558 0.1318
0.0128797 -0.057692 0.1312
0.0125325 -0.0575161 0.1308
0.0122058 -0.0574282 0.1306
0.01188 -0.0573402 0.1304
0.0112659 -0.0573402 0.1304
0.0106191 -0.0571643 0.13
0.0103209 -0.0572083 0.1301
0.0100299 -0.0572963 0.1303
0.00973052 -0.0573402 0.1304
0.00944514 -0.0574721 0.1307
0.00913736 -0.0574721 0.1307
0.0088431 -0.0575601 0.1309
0.00854137 -0.0576041 0.131
0.00823289 -0.0576041 0.131
0.00791836 -0.0575601 0.1309
0.00759268 -0.0574282 0.1306
0.0072684 -0.0572963 0.1303
0.00695623 -0.0572523 0.1302
0.00663941 -0.0571643 0.13
0.00633329 -0.0571643 0.13
0.00602253 -0.0571204 0.1299
0.00386934 -0.0569445 0.1295
0.00355889 -0.0568565 0.1293
0.00324686 -0.0567246 0.129
0.00293853 -0.0566367 0.1288
0.00262704 -0.0564608 0.1284
0.00231744 -0.0562849 0.128
0.002005 -0.0559771 0.1273
0.000498208 -0.0550976 0.1253
0.00020315 -0.0550976 0.1253
-9.19086e-05 -0.0550976 0.1253
-0.000386967 -0.0550976 0.1253
-0.000683658 -0.0552295 0.1256
-0.000980983 -0.0553175 0.1258
-0.00128026 -0.0554494 0.1261
-0.00158096 -0.0555813 0.1264
-0.00188455 -0.0557572 0.1268
-0.00219003 -0.0559331 0.1272
-0.00249935 -0.056153 0.1277
-0.00281102 -0.0563728 0.1282
-0.00312505 -0.0565927 0.1287
-0.00812923 -0.0555813 0.1264
-0.0111918 -0.0518437 0.1179
-0.0114694 -0.0518437 0.1179
-0.0117471 -0.0518437 0.1179
-0.0120247 -0.0518437 0.1179
-0.0122919 -0.0517997 0.1178
-0.0125693 -0.0517997 0.1178
-0.0128467 -0.0517997 0.1178
-0.0131129 -0.0517557 0.1177
-0.0133787 -0.0517117 0.1176
-0.0136556 -0.0517117 0.1176
-0.0164113 -0.0554054 0.126
-0.0166947 -0.0553615 0.1259
-0.0169777 -0.0553175 0.1258
-0.0172602 -0.0552735 0.1257
-0.0175423 -0.0552295 0.1256
-0.0178238 -0.0551856 0.1255
-0.0181049 -0.0551416 0.1254
-0.0183855 -0.0550976 0.1253
-0.0186806 -0.0550976 0.1253
-0.0189454 -0.0550097 0.1251
-0.0192246 -0.0549657 0.125
-0.0195033 -0.0549217 0.1249
-0.0197974 -0.0549217 0.1249
-0.0200754 -0.0548778 0.1248
-0.0203367 -0.0547898 0.1246
-0.0205804 -0.0546579 0.1243
-0.0208395 -0.05457 0.1241
-0.0210977 -0.054482 0.1239
-0.021355 -0.0543941 0.1237
-0.0216112 -0.0543061 0.1235
-0.0226454 -0.0539983 0.1228
-0.0228973 -0.0539104 0.1226
-0.023186 -0.0539104 0.1226
-0.0234555 -0.0538664 0.1225
-0.023744 -0.0538664 0.1225
-0.0240128 -0.0538224 0.1224
-0.0242812 -0.0537784 0.1223
-0.0245692 -0.0537784 0.1223
-0.0248572 -0.0537784 0.1223
-0.0251246 -0.0537345 0.1222
-0.0254124 -0.0537345 0.1222
-0.0256581 -0.0536465 0.122
-0.0259454 -0.0536465 0.122
-0.0262111 -0.0536026 0.1219
-0.0264982 -0.0536026 0.1219
-0.0267193 -0.0534706 0.1216
-0.0269613 -0.0533827 0.1214
-0.0272247 -0.0533387 0.1213
-0.027465 -0.0532508 0.1211
-0.0277043 -0.0531628 0.1209
-0.0279196 -0.0530309 0.1206
-0.0320193 -0.0527671 0.12
-0.0633697 -0.0482379 0.1097
-0.063628 -0.0482379 0.1097
-0.0639445 -0.0482819 0.1098
-0.0642616 -0.0483258 0.1099
-0.0645204 -0.0483258 0.1099
-0.0647792 -0.0483258 0.1099
-0.0650971 -0.0483698 0.11
-0.0653562 -0.0483698 0.11
-0.0656152 -0.0483698 0.11
-0.0658742 -0.0483698 0.11
-0.0661333 -0.0483698 0.11
-0.0663923 -0.0483698 0.11
-0.0666513 -0.0483698 0.11
-0.0668495 -0.0483258 0.1099
-0.0670472 -0.0482819 0.1098
-0.0673671 -0.0483258 0.1099
-0.0676259 -0.0483258 0.1099
