ply
format ascii 1.0
comment Created by Open3D
element vertex 1609
property float x
property float y
property float z
end_header
0.00560087 0.00640693 -0.0229
0.017639 0.0159226 -0.00930001
-0.0347769 0.0218563 -0.0206
0.00675825 0.00840487 -0.02195
0.0762016 0.0489124 0.00654999
0.00589418 0.00642602 -0.02255
0.0027766 0.0124498 -0.02565
-0.00116188 0.0365428 -0.0222
0.0741877 0.0489388 0.0098
0.00637957 0.00640443 -0.0221
0.00706902 0.00648888 -0.0214
-0.0669529 0.0528155 0.00309999
0.00826207 0.00640825 -0.0203
0.00466922 0.0395624 -0.0105
-0.0186873 0.0459213 -0.0266667
0.0243952 0.0472776 -0.00855
0.0113678 0.00657421 -0.0172
0.0128355 0.00688574 -0.01415
-0.0292258 0.0362804 -0.01795
-0.0473365 0.0450781 -0.02655
0.0132049 0.00692404 -0.01345
0.0135829 0.006965 -0.0127
-0.00983123 0.0134473 -0.030675
-0.0296496 0.0379778 -0.0203
0.0073174 0.0548487 -0.00670001
0.0139699 0.00685795 -0.0119
0.0146415 0.00689007 -0.0113
-0.0299963 0.00765433 -0.0228
-0.0197746 0.0327858 -0.025
-0.0332843 0.0452221 -0.0462
0.0152832 0.00690614 -0.011
-0.0487 0.0513941 -0.0364333
-0.0192193 0.0303578 -0.02615
-0.0167184 0.0528864 -0.02005
0.0162447 0.00692755 -0.0106
0.0432834 0.0478868 -0.00900001
-0.0327059 0.00685886 -0.0206333
0.0838617 0.0484004 0.00399999
0.00938921 0.0279643 -0.0166
-0.0324731 0.00666218 -0.0208
0.0132066 0.0578135 -0.0189
-0.0321384 0.00679111 -0.021
-0.0264084 0.00668659 -0.0252
0.00686225 0.0173507 -0.02255
-0.0222263 0.0458593 -0.0500857
-0.031818 0.00678261 -0.02115
-0.0314983 0.00677399 -0.0213
-0.0512411 0.0239173 0.00885
-0.0142659 0.0323827 -0.0261
-0.0507936 0.0457862 0.00219999
-0.0279777 0.00646656 -0.0243
-0.0343061 0.044909 -0.02895
-0.0255528 0.00640508 -0.0254
-0.0244093 0.00638831 -0.0257
-0.024119 0.00638272 -0.0258
-0.000788835 0.0465743 -0.0154
-0.0122761 0.00838576 -0.029525
-0.0238083 0.00637155 -0.026
-0.0231592 0.00647432 -0.02655
0.00575463 0.0365217 -0.01665
-0.00478197 0.0263532 -0.02835
0.0058735 0.0354913 -0.0172
-0.0026654 0.0123575 -0.0289
-0.0164891 0.0267596 -0.0283
-0.0221015 0.00640013 -0.02785
-0.0214291 0.00622623 -0.0286
-0.0208106 0.00619828 -0.0291
0.00317266 0.00682983 -0.0243
-0.0198248 0.00630603 -0.0295
-0.0193044 0.00630603 -0.0295
-0.0230573 0.0346416 -0.023
-0.0302746 0.0129192 -0.02385
-0.0182594 0.00630458 -0.029525
0.0398233 0.0467827 -0.0082
0.00227427 0.0259222 -0.0238
-0.0177271 0.00630027 -0.0296
-0.0161526 0.00629462 -0.0297
0.00129258 0.00839034 -0.025925
-0.0156402 0.00629741 -0.02965
0.0157109 0.0467425 -0.0019
0.073814 0.0494395 -0.02635
0.0132675 0.0123462 -0.01285
0.0141005 0.0324368 -0.00785
0.0134465 0.0550892 -0.0167
-0.0151273 0.00630027 -0.0296
-0.0363662 0.0142764 -0.0181
0.0164887 0.0462597 0.008
-0.014614 0.00630312 -0.02955
-0.0132362 0.0202526 -0.0298333
-0.0357672 0.0117793 -0.0172
-0.0286113 0.0224169 -0.0254
-0.0142303 0.00630603 -0.0295
-0.0288035 0.0288162 -0.0226
-0.0138431 0.00630743 -0.029475
0.00935117 0.025391 -0.0171
-0.000511727 0.0693214 -0.0113
-0.0277092 0.015384 -0.02485
-0.00917155 0.048078 -0.019
-0.0133317 0.00631174 -0.0294
-0.0128108 0.00631174 -0.0294
-0.00912825 0.038983 -0.0232
-0.0122816 0.00630749 -0.029475
-0.0112355 0.00630458 -0.029525
-0.0101948 0.00630458 -0.029525
-0.00864172 0.00631028 -0.029425
-0.00757444 0.00628153 -0.0291667
-0.0261292 0.0264109 -0.0256333
-0.0196276 0.0273122 -0.02765
-0.00672366 0.00634307 -0.02885
-0.0472441 0.0452314 -0.0325333
-0.00643167 0.0471707 -0.0247
0.00852253 0.00878209 -0.0206
-0.00123875 0.0115551 -0.0278
-0.0231476 0.0236877 -0.0279
-0.00630148 0.00640104 -0.0286
-0.00832635 0.0179094 -0.03015
0.0202932 0.0629718 -0.0183
-0.0186928 0.0454899 -0.0266333
-0.0288555 0.0438742 -0.0166667
-0.00583102 0.00636875 -0.0284
-0.0206658 0.0719607 -0.0064
-0.00375457 0.00641295 -0.027625
0.0138827 0.0144592 -0.0127
-0.0317963 0.0419554 -0.0169
-0.0140967 0.0435885 -0.0219
-0.00323175 0.00642582 -0.0274
-0.0112278 0.00734021 -0.0296
0.00941309 0.00840236 -0.02
-0.014237 0.0147649 -0.03045
-0.0243748 0.0438737 -0.04855
0.0761441 0.0486693 0.00479999
-0.0318706 0.0462443 -0.0511667
-0.00266355 0.00639674 -0.0271333
0.00315265 0.00931328 -0.0250333
-0.000453675 0.00637713 -0.0259
0.000624328 0.00641067 -0.0253
0.00676684 0.00660629 -0.0218
0.0126173 0.0298501 -0.0103
-0.0507057 0.0214862 0.0078
0.00795353 0.00666777 -0.0207
0.014227 0.0161585 -0.0123
0.00824826 0.00681952 -0.0205
0.0286866 0.0459112 0.008
-0.0111388 0.0147615 -0.030475
-0.0313054 0.0374269 -0.01935
0.00926805 0.00684527 -0.02005
0.0108861 0.0248682 -0.0161
0.0168372 0.0462597 0.008
0.00992253 0.00682756 -0.0195333
0.0106576 0.00692237 -0.0187
0.0113678 0.00686338 -0.0172
-0.026334 0.045579 -0.0531
0.0122548 0.0508657 -0.00533333
-0.0231682 0.0120836 -0.0278
0.0117329 0.0069081 -0.0164
0.0146415 0.00734467 -0.0113
-0.0180594 0.0471534 -0.0505
0.0177659 0.060621 -0.0036
0.0157572 0.00737035 -0.01085
-0.013193 0.0323827 -0.0261
0.0147954 0.0467439 -0.00285
0.0162447 0.00738462 -0.0106
0.0173647 0.00740745 -0.0102
0.00824441 0.0148511 -0.0219
0.0177304 0.00736023 -0.0101333
0.0183099 0.0074188 -0.01
-0.0198065 0.047269 -0.01665
0.0187763 0.00742166 -0.00995
0.0202907 0.0579237 -0.00390001
0.00668097 0.0153163 -0.0233
-0.0502765 0.0189313 0.00554999
-0.0337649 0.00697782 -0.0202
0.0110003 0.0279299 -0.0148
0.0180311 0.0519045 -0.0109
-0.0307087 0.00689337 -0.02165
-0.0329461 0.0109364 -0.0201
-0.0257214 0.0462378 -0.05545
-0.0297584 0.00697322 -0.02265
-0.000710331 0.0198778 -0.0278
-0.0452849 0.0548977 -0.03545
-0.0282014 0.00686311 -0.0245
-0.0276519 0.00688468 -0.0249
-0.0213104 0.0444847 -0.0155
-0.0212214 0.0139148 -0.029
-0.0242949 0.0110101 -0.0270667
-0.0271686 0.00678649 -0.0250333
-0.016206 0.0349528 -0.0247
-0.0037086 0.0102553 -0.029
-0.0084442 0.0141392 -0.0303
-0.0267766 0.00686875 -0.0251667
-0.00781157 0.0324455 -0.02635
-0.0256878 0.00680987 -0.0254
-0.0247826 0.00684086 -0.0256333
0.0653233 0.0479872 -0.0451
-0.0162611 0.0458885 -0.0454333
-0.0237875 0.00676815 -0.0261
-0.0224354 0.00655263 -0.0275
-0.0212311 0.00646817 -0.02895
-0.00773914 0.00644778 -0.0293
-0.0177246 0.0203552 -0.0288
-0.0028366 0.00656428 -0.0273
0.0127924 0.0476052 -0.00850001
-0.0017593 0.0134764 -0.0283
-0.000720778 0.00676524 -0.02615
-0.000319175 0.00677859 -0.025925
0.0223199 0.0513121 -0.0174
0.0161918 0.0163216 -0.0098
-0.0137471 0.0223693 -0.0292
0.000218649 0.00679647 -0.025625
0.000758773 0.00680981 -0.0254
-0.0141875 0.0439952 -0.0223
0.00198514 0.00671571 -0.0247
0.0792939 0.0484349 0.00309999
-0.0107272 0.0248033 -0.0294
-0.00815679 0.0404025 -0.022
-0.0247045 0.00823621 -0.0262
-0.0214591 0.0361115 -0.0227
0.00266866 0.00686335 -0.0245
0.00522283 0.00689872 -0.0231333
0.00559609 0.00695248 -0.023
-0.00115048 0.0328898 -0.02335
0.00588666 0.00697031 -0.0227
-0.0379452 0.0126983 -0.0167
0.00141711 0.0134026 -0.0267
0.00646654 0.00686133 -0.0222
0.00134032 0.017339 -0.0256667
0.0113909 0.00731217 -0.01695
0.0126976 0.00748415 -0.01405
-0.0271784 0.0218453 -0.0265
0.0193694 0.0599213 -0.0178
0.0132206 0.00737971 -0.0133
0.0135936 0.00742048 -0.0126
-0.0318581 0.00735156 -0.021
0.0127386 0.0464618 0.00119999
-0.0311531 0.00731752 -0.02155
-0.0307508 0.00726391 -0.0216667
-0.0278233 0.0456354 -0.0526
-0.0227709 0.00697157 -0.02715
-0.0224354 0.00695 -0.0275
0.0722877 0.0504034 -0.025375
0.0156413 0.0551075 -0.0053
-0.0217303 0.0068944 -0.0284
-0.0327166 0.0455363 -0.0478
0.0167456 0.0178108 -0.00785
-0.0210907 0.00685733 -0.029
-0.0292876 0.0450043 -0.048
-0.0541585 0.0442389 -0.0102
-0.0205931 0.00679333 -0.0293333
-0.0199706 0.0389265 -0.0217
-0.0197874 0.00678517 -0.0294667
-0.00670318 0.0354958 -0.0247
-0.0171565 0.0143172 -0.029925
-0.0489737 0.0446496 -0.0249
-0.018247 0.00682026 -0.0296
-0.0232177 0.0444755 -0.0147
-0.027713 0.0368018 -0.01765
0.0178272 0.0179596 -0.00713333
-0.0167153 0.0067708 -0.0297
-0.0156331 0.00681409 -0.0297
-0.0146074 0.00682026 -0.0296
-0.0462744 0.0556547 -0.0353
-0.0142303 0.00682645 -0.0295
-0.0325614 0.01625 -0.0215
0.0275507 0.0456419 0.0094
-0.01384 0.00682644 -0.0295
-0.0486472 0.044745 -0.02535
-0.0128079 0.00683105 -0.029425
-0.00210561 0.0478537 -0.0237
-0.00382897 0.0117917 -0.0293
0.0262875 0.0470471 -0.001
-0.0117558 0.00682493 -0.029525
-0.0112304 0.00682178 -0.029575
-0.0107078 0.00682026 -0.0296
-0.0346474 0.0215173 -0.0204
-0.00914801 0.00682026 -0.0296
0.0603368 0.0479463 -0.0494
-0.025144 0.0286831 -0.0248
0.0177683 0.00890818 -0.0106
-0.0059144 0.0153108 -0.0293
-0.0086339 0.00682487 -0.029525
-0.00722431 0.00684498 -0.0292
-0.00571458 0.0421883 -0.0227
0.0157939 0.0124172 -0.01055
0.0712722 0.0494592 0.00646666
-0.0063756 0.00691123 -0.0288333
-0.0329518 0.0193606 -0.0221
0.0756991 0.0492843 -0.00815
-0.00165541 0.0273484 -0.0264
-0.00620854 0.00674482 -0.0287
-0.00398808 0.0467634 -0.0247
-0.00530543 0.00689434 -0.0284
0.0208048 0.0470767 0.00409999
-0.00828201 0.0143289 -0.0301667
-0.00479054 0.00677815 -0.02815
-0.00318004 0.00689559 -0.0276667
0.00670909 0.0463363 -0.00310001
-0.00216081 0.0628943 -0.01235
-0.0250941 0.0463481 -0.0286333
-0.0256941 0.0100081 -0.0263667
-0.0256801 0.0303524 -0.0236
0.0433164 0.046843 -0.0089
-0.00112089 0.00688723 -0.02635
0.00335719 0.00701752 -0.0242
-0.0223325 0.0447706 -0.0147
-0.00225951 0.044298 -0.0152
-0.0138369 0.00786547 -0.029525
0.00636516 0.00731324 -0.0223667
0.00842021 0.0350158 -0.0137
0.00704518 0.00730213 -0.0218
0.0073421 0.00732055 -0.0215
0.00930859 0.00735808 -0.0201333
0.0100198 0.00744423 -0.0195
-0.0086742 0.0358653 -0.0249667
-0.00764297 0.03488 -0.0255333
-0.00321036 0.0628451 -0.01245
0.0110245 0.00740537 -0.0178
0.0129018 0.00781512 -0.0135
0.0136096 0.00787982 -0.01245
0.0139699 0.00791373 -0.0119
-0.0179444 0.0393168 -0.0222
-0.00626167 0.0388406 -0.0228
0.0143106 0.0079353 -0.01155
0.0149562 0.00795698 -0.0112
-0.00577883 0.0198548 -0.0294
0.0157572 0.00782654 -0.01085
0.0805259 0.0487827 0.0072
0.0253428 0.0472674 0.0068
-0.0477325 0.0580071 -0.0337
0.0162322 0.00783563 -0.0107
0.0167083 0.00784472 -0.01055
-0.0246449 0.0128946 -0.026475
0.0173447 0.00785684 -0.01035
-0.0222118 0.0351625 -0.0231
0.0178095 0.00785987 -0.0103
0.0717912 0.0492257 -0.00705
-0.0506983 0.0174269 0.0088
0.0192209 0.00787502 -0.01005
-0.0207062 0.0450039 -0.049525
0.0181923 0.0532439 -0.0052
-0.0343313 0.00760499 -0.0192
0.00627847 0.0253922 -0.0205
-0.0142044 0.0378504 -0.0233
-0.0043187 0.042595 -0.0231
-0.0305048 0.00743501 -0.0219
0.0733527 0.0493301 -0.02586
-0.0284486 0.00726503 -0.0246
-0.0261597 0.0459334 -0.0560667
-0.0277843 0.00723355 -0.0251
0.013489 0.0464233 0.00209999
-0.0152555 0.02849 -0.0277
-0.0267672 0.00734954 -0.0254
-0.0262046 0.00734319 -0.0255
-0.0237457 0.00729188 -0.0263
0.0093268 0.015885 -0.0211
-0.0281604 0.0458107 -0.0518667
-0.0165272 0.00693766 -0.0298
0.0219158 0.0466395 0.007
-0.00478417 0.00703209 -0.0283
-0.00111913 0.0249136 -0.026525
0.000689646 0.0455692 -0.0133
-0.00178213 0.00725654 -0.02685
-0.0186924 0.0433181 -0.0479
-0.000720461 0.0071643 -0.0262
0.000352995 0.00719578 -0.0257
-0.00506981 0.0409046 -0.0205333
0.000802549 0.00729397 -0.0255667
0.00125354 0.00739457 -0.0254
0.00101919 0.0571644 -0.00930001
0.0343619 0.0477406 -0.01065
0.00143587 0.00722726 -0.0252
0.00234447 0.00743111 -0.0248333
0.00280331 0.00740404 -0.02455
-0.0253867 0.0464224 -0.05655
-0.0281525 0.014861 -0.0247
0.00308051 0.00741688 -0.02435
-0.00525197 0.0117677 -0.029525
0.017318 0.0159104 -0.00940001
0.0138466 0.0499145 -0.0073
0.00335719 0.00742655 -0.0242
0.00377363 0.00744107 -0.023975
-0.025307 0.0463889 -0.02885
0.00433496 0.00746667 -0.023575
0.00517623 0.00735632 -0.02315
-0.0252087 0.0465088 -0.0555
0.00573886 0.00737205 -0.0229
-0.0336929 0.0465731 -0.0504
0.00763401 0.00747278 -0.0213
-0.0312595 0.0107449 -0.0222
0.0112846 0.0537398 -0.024
0.00910768 0.00753574 -0.0203
-0.0136857 0.0364678 -0.0242
0.0122088 0.00790088 -0.0145
-0.0342034 0.0377589 -0.01965
0.012574 0.00794495 -0.0138
0.00181619 0.0397782 -0.0178
-0.00127771 0.0566614 -0.01045
0.0762554 0.0507471 -0.0156
-0.0291848 0.0139499 -0.024375
0.015748 0.00827789 -0.010925
-0.00259631 0.0294065 -0.0262
-0.00421982 0.0430169 -0.018
0.0167525 0.00824797 -0.0106
-0.029229 0.012744 -0.0242
0.0177889 0.00830832 -0.01045
0.0159893 0.0109225 -0.0102
0.0182606 0.00831474 -0.01035
-0.0541869 0.0178944 0.00409999
0.0138587 0.0117758 -0.012
-0.0082889 0.0386417 -0.0234
-0.050649 0.0447428 -0.0203
0.0191987 0.00817158 -0.0102
0.0120531 0.0159695 -0.0161
-0.0342741 0.00790904 -0.0189
-0.0262329 0.0418514 -0.0492
-0.0271196 0.0149513 -0.02505
-0.0142175 0.012426 -0.0306
-0.0152759 0.0124487 -0.0304
-0.0331426 0.00798502 -0.0199
-0.0322194 0.00779148 -0.0207
-0.0325007 0.0365161 -0.0186
0.0112139 0.023924 -0.0157
-0.031317 0.00782347 -0.0216333
-0.0257088 0.0452859 -0.05065
-0.0272476 0.0418701 -0.01715
-0.0262074 0.0423482 -0.0166
-0.0295935 0.00762168 -0.0233
-0.053749 0.0447638 -0.01045
-0.0277359 0.00749106 -0.0253
-0.00409334 0.0213257 -0.0292
-0.0220719 0.00744659 -0.028
-0.0211002 0.00738349 -0.02895
-0.032296 0.0148612 -0.02145
-0.0206708 0.00737013 -0.02915
-0.0102915 0.0557838 -0.0158
-0.0236966 0.0227841 -0.0278
-0.0213867 0.0448672 -0.0498
-0.0201124 0.00735683 -0.02935
0.00892022 0.0533215 -0.0062
-0.0197125 0.00735351 -0.0294
-0.0116398 0.0344256 -0.02555
-0.0193088 0.00734849 -0.029475
-0.0171915 0.00733356 -0.0297
-0.0166721 0.00733356 -0.0297
0.00969548 0.0278641 -0.0164
-0.00266744 0.0277887 -0.0269667
-0.02027 0.0111501 -0.0292
-0.0161526 0.00733356 -0.0297
-0.0156331 0.0169438 -0.0297
-0.0152293 0.0348921 -0.0249
-0.0156331 0.00733356 -0.0297
0.0112588 0.0523649 -0.0046
-0.0146074 0.00734021 -0.0296
-0.02673 0.0118958 -0.0253667
0.00441477 0.0238726 -0.0226667
-0.0142175 0.00734021 -0.0296
-0.0218205 0.0466771 -0.0502
0.00416804 0.0119053 -0.0244
-0.0484361 0.0455581 -0.0035
0.0913098 0.0628013 -0.0078
-0.0100631 0.0589157 -0.01315
-0.0128021 0.00734849 -0.029475
-0.0307228 0.0451758 -0.0466
-0.0122788 0.00734686 -0.0295
0.0131536 0.0462587 0.00579999
-0.010703 0.00733682 -0.02965
-0.00913972 0.00733356 -0.0297
-0.00319014 0.0148496 -0.02885
-0.00810807 0.00734015 -0.0296
-0.00778196 0.0402871 -0.0220667
0.00772726 0.0218522 -0.01985
-0.016657 0.00823516 -0.0298
0.0139596 0.0173302 -0.0147
-0.0507482 0.0574475 -0.0335
-0.000199096 0.0470582 -0.0172
-0.00763835 0.00730342 -0.0295
0.0113278 0.0464629 0.000199988
-0.007298 0.00739684 -0.0294
0.00887942 0.030095 -0.0156
-0.0273759 0.0329367 -0.0222
-0.00580623 0.00738832 -0.028875
-0.00525071 0.00736072 -0.0286333
-0.0042981 0.00746372 -0.0284
0.0333057 0.046162 -0.0082
-0.00413029 0.00730166 -0.0282
-0.0299879 0.0198407 -0.02495
-0.00369373 0.00739377 -0.0281333
-0.00221403 0.00752617 -0.0274667
0.00517845 0.00777244 -0.0231
0.00588666 0.00779897 -0.0227
0.00704518 0.00785881 -0.0218
-0.0187756 0.011765 -0.02955
0.00733591 0.00787211 -0.0216
0.0223341 0.047835 -0.007
0.00763401 0.00789206 -0.0213
0.0079302 0.00790862 -0.02105
-0.0347769 0.022278 -0.0206
-0.0207026 0.0419128 -0.0486
0.00940524 0.00797184 -0.0201
-0.0272951 0.0258239 -0.02545
0.00971183 0.00785026 -0.0198
0.0100198 0.00786986 -0.0195
-0.0537828 0.0444599 -0.01
-0.00914387 0.0393253 -0.023
0.0126039 0.00841078 -0.0135
-0.0523856 0.0452994 -0.0089
-0.0263184 0.0310068 -0.0232
-0.0292585 0.0439464 -0.0166
-0.0257016 0.0158996 -0.0263333
-0.00211371 0.0108215 -0.0281
0.0129477 0.00844064 -0.01305
0.00323068 0.0517692 -0.00695001
0.0132832 0.00846385 -0.0127
-0.0127424 0.0367722 -0.0241
0.00517801 0.023902 -0.0220667
0.0136256 0.00834009 -0.0123
0.014305 0.00838581 -0.0116
0.0147874 0.00840213 -0.01135
0.00971183 0.0205875 -0.0198
-0.0511155 0.0180683 0.0055
-0.0261784 0.01038 -0.0262
0.00460018 0.0439509 -0.0035
-0.0288448 0.0113904 -0.0241
-0.0342441 0.00836457 -0.0185
-0.0338322 0.00833353 -0.01895
-0.0271784 0.0214445 -0.0265
-0.00612276 0.045535 -0.0254
-0.0334086 0.00829911 -0.01945
0.00723506 0.0588869 -0.0082
-0.0321924 0.00806565 -0.0208
0.00273478 0.0557833 -0.0082
-0.0303498 0.00795062 -0.0225
-0.0296744 0.0388559 -0.0202
-0.00532444 0.028282 -0.028
-0.0299195 0.00791002 -0.0231
-0.0283747 0.00792374 -0.0249
-0.0155383 0.0489913 -0.0236
-0.027289 0.00788413 -0.025475
-0.0261702 0.00787205 -0.02565
-0.0451513 0.0511684 -0.0359
0.0097962 0.0154024 -0.0205
-0.00613879 0.0348315 -0.0251
-0.0537802 0.0451144 -0.0129
-0.0256205 0.00773409 -0.0257
0.00670387 0.0133007 -0.0229
-0.025277 0.00790427 -0.0258333
-0.0142474 0.0140019 -0.0307
-0.0073066 0.00887381 -0.029925
0.0152832 0.012374 -0.011
-0.0241792 0.00770364 -0.02615
-0.0237144 0.00781698 -0.02645
-0.00668413 0.0416537 -0.02265
0.0122185 0.0127873 -0.0144
-0.0230775 0.00778256 -0.02695
-0.0028215 0.00758523 -0.0279
-0.0512019 0.0228805 0.00856666
0.0107894 0.00946593 -0.0172
0.011414 0.0193763 -0.0167
-0.0391715 0.0453797 -0.0368
-0.000718561 0.00781359 -0.0265
0.00134115 0.00783065 -0.0256
0.00183421 0.0163543 -0.02565
0.00279968 0.00780175 -0.0247
-0.00867262 0.0458461 -0.0505833
0.00307785 0.00795466 -0.02445
0.00372945 0.00794468 -0.0239333
-0.0482179 0.0450455 -0.0273
-0.0249741 0.0104586 -0.0268
-0.00202414 0.015463 -0.0282
-0.00216053 0.0178722 -0.02795
0.00476139 0.00790325 -0.0232
0.0100365 0.00816714 -0.0193
-0.049296 0.0198765 0.0062
0.0103763 0.00835406 -0.01865
0.0107191 0.00825511 -0.018
0.0111056 0.00832954 -0.0169
-0.0207639 0.0195961 -0.02865
0.0115066 0.00841074 -0.0157
0.00926452 0.0323207 -0.01435
0.0136256 0.0086408 -0.0123
0.014305 0.00883934 -0.0116
-0.0254171 0.0203825 -0.0272
-0.0416954 0.0454448 -0.0364667
0.0147874 0.00885656 -0.01135
0.0167614 0.0472203 -0.00813333
-0.0206334 0.0133497 -0.02935
0.00591677 0.0218593 -0.0221
0.0163686 0.00889273 -0.010825
0.0197075 0.0613083 -0.0035
-0.0141257 0.0248256 -0.0293
0.0222544 0.0469319 0.00469999
0.0164832 0.047842 -0.0087
0.0168281 0.0087423 -0.0108
0.00476955 0.00888108 -0.023
0.0163811 0.0199812 -0.00616667
0.00883461 0.0497891 -0.0051
0.0173045 0.0089048 -0.01065
0.0182254 0.00890818 -0.0106
-0.0357522 0.0439124 -0.0142
0.00764128 0.0448203 -0.000799999
-0.0357672 0.00859841 -0.0172
-0.0350169 0.0085564 -0.0178
-0.0330285 0.00841636 -0.0198
-0.0204611 0.0320979 -0.0252
0.00435914 0.0303871 -0.0191
0.0173511 0.0123973 -0.00915001
-0.0326365 0.00838835 -0.0202
-0.0101602 0.00887586 -0.0299
-0.0321924 0.00834634 -0.0208
-0.0317644 0.00844747 -0.02135
-0.0535102 0.0223932 0.0069
-0.0298939 0.00817829 -0.0232
-0.0227407 0.00789121 -0.0273
-0.0217303 0.00794559 -0.0284
-0.00821483 0.0480301 -0.0184
-0.0362767 0.0149572 -0.0184
-0.0197125 0.00787439 -0.0294
0.0733913 0.0489954 0.0089
-0.0266968 0.0415749 -0.0498
-0.0193132 0.00787083 -0.02945
0.0802774 0.0488435 0.000399992
-0.0526938 0.0201378 0.00559999
-0.0166721 0.00772317 -0.0297
-0.00285353 0.0549256 -0.0104667
-0.0132142 0.0119352 -0.030375
-0.015117 0.00785478 -0.029675
0.00318341 0.0108436 -0.02555
0.0926556 0.0614164 -0.0081
-0.0127992 0.00786727 -0.0295
-0.0422501 0.0456669 -0.0367
-0.0122788 0.00786727 -0.0295
-0.0026738 0.0108217 -0.02855
-0.0117477 0.00786016 -0.0296
-0.0456939 0.0473047 -0.0355
-0.016549 0.0490114 -0.0242
-0.0106982 0.00785303 -0.0297
-0.00105969 0.0225036 -0.0281
0.00374586 0.0298947 -0.0205
-0.0376854 0.0122727 -0.0166
-0.0103085 0.00772317 -0.0297
-0.0147113 0.031384 -0.0268
-0.0129059 0.0103205 -0.0297
0.0036095 0.012808 -0.02485
0.0772064 0.0498467 -0.00580001
-0.0091273 0.00784229 -0.02985
-0.00860853 0.00784229 -0.02985
-0.0246982 0.0188796 -0.02745
-0.00822319 0.00784591 -0.0298
-0.0073249 0.00785653 -0.02965
-0.0152558 0.0354958 -0.0247
0.00529329 0.0118507 -0.0236
-0.00681438 0.00786722 -0.0295
-0.0161965 0.0193338 -0.0294
-0.00634312 0.00791772 -0.0294
0.0177556 0.0194655 -0.0061
-0.0101117 0.0168324 -0.030425
0.016789 0.0143374 -0.0111
-0.00424662 0.00793129 -0.0286
-0.00216723 0.00787021 -0.0276
-0.0225389 0.0179479 -0.0283
0.0038217 0.00831146 -0.0239
0.02746 0.0470941 0.0052
-0.0103114 0.0473658 -0.019
0.00785353 0.0146284 -0.0222
0.00403111 0.0395903 -0.0114
0.0107279 0.0142999 -0.0179
0.00476547 0.00832294 -0.0231
-0.0276301 0.0514216 -0.0205
-0.0141775 0.0518048 -0.0176
0.00513985 0.00828888 -0.0229333
-0.0277214 0.0182568 -0.0261
0.00618389 0.00824131 -0.0223
0.0913427 0.0639763 -0.0073
-0.00521137 0.0112967 -0.0294667
0.00637591 0.00843566 -0.0221667
-0.0282944 0.0144569 -0.024675
-0.0206582 0.026483 -0.0278
-0.0506029 0.0540925 -0.0345
0.00999292 0.0444185 0
-0.0202016 0.0750907 -0.0053
0.00704518 0.00827632 -0.0218
0.00479902 0.0416025 -0.0069
0.00852253 0.00836034 -0.0206
-0.0022251 0.0663722 -0.0115333
-0.0185067 0.0440844 -0.0472
0.00881107 0.00836735 -0.0205
0.0188823 0.0477083 -0.00850001
0.00910768 0.00838135 -0.0203
-0.00520084 0.0473599 -0.0249
0.012963 0.0088995 -0.0129
-0.00577227 0.00994669 -0.029525
0.019307 0.0472239 0.00559999
0.013304 0.0089275 -0.0125
0.0168411 0.00905354 -0.0107
0.0122005 0.0272739 -0.01305
-0.00111103 0.0105404 -0.02735
-0.0351029 0.00886587 -0.0175
0.00918023 0.042716 -0.00230001
-0.0335056 0.00875007 -0.0191
-0.0276506 0.0347399 -0.0198
-0.0083302 0.00937732 -0.0301
-0.0103495 0.0594427 -0.0133
-0.0322194 0.00863427 -0.0207
-0.0306526 0.00851124 -0.0224
-0.0302723 0.00848229 -0.0228
-0.00577616 0.00891213 -0.02945
-0.0298428 0.00843886 -0.0234
-0.0282148 0.00845846 -0.025
-0.0272831 0.00842168 -0.0255
0.0076308 0.0187853 -0.02135
-0.0262934 0.0082724 -0.0257
-0.0482744 0.0517044 -0.0363
-0.0257213 0.00839589 -0.02585
-0.0127149 0.0282947 -0.02795
-0.0202455 0.0318621 -0.0254
-0.000710331 0.0120836 -0.0278
-0.023861 0.0082962 -0.0266
-0.0232585 0.00827184 -0.0269333
-0.0227104 0.0082782 -0.02745
-0.0097297 0.0389136 -0.0231333
-0.0180738 0.0199188 -0.0288
0.0109613 0.015374 -0.0185
-0.0175652 0.00797566 -0.0298
-0.0532318 0.0234401 0.00805
-0.0231632 0.0738157 -0.00560001
-0.016657 0.00797566 -0.0298
-0.0132012 0.0272856 -0.0283
-0.00783394 0.00797566 -0.0298
-0.00821662 0.0328613 -0.0263
-0.00229355 0.00811318 -0.0279
-0.002035 0.00813489 -0.0276
-0.00168501 0.00832613 -0.0274
0.0772836 0.0485673 0.0025
-0.0150574 0.0414334 -0.0209
-0.000984096 0.00820003 -0.0267
0.00129448 0.0461571 -0.0125
-0.000317735 0.00835181 -0.02645
0.00279239 0.00845834 -0.025
0.0126338 0.00932638 -0.0132
0.0783231 0.0490312 0.00795
0.0223686 0.0473849 -0.0166
0.0129834 0.00936316 -0.0127
0.00530466 0.0107773 -0.02335
0.0133145 0.00938522 -0.0124
0.00709882 0.0208197 -0.0209
0.0147349 0.00941071 -0.0113667
0.015751 0.00934354 -0.0109
0.0162196 0.00935078 -0.0108
0.00931043 0.0212064 -0.0195
-0.00975558 0.0268189 -0.0286
0.0129018 0.0143684 -0.0135
0.0167018 0.00936526 -0.0106
0.00832021 0.0323958 -0.0152
0.018139 0.0164042 -0.0079
-0.00667223 0.00993093 -0.0297
-0.0117416 0.0368633 -0.0241
0.0173112 0.00936526 -0.0106
0.0193067 0.00937249 -0.0105
-0.0356953 0.00934037 -0.01695
-0.00114995 0.015333 -0.0278667
0.0157677 0.0611448 -0.0144
-0.0351315 0.00916181 -0.0174
-0.0137777 0.0383043 -0.0230333
-0.0262359 0.00946279 -0.02595
-0.0226902 0.00880045 -0.02755
-0.0402261 0.0455785 -0.0369
-0.0348002 0.00929483 -0.01755
-0.0206129 0.0369087 -0.0228
-0.0344414 0.00913192 -0.0178
-0.0171364 0.0313349 -0.0263333
0.0122526 0.0104501 -0.01405
0.00172701 0.0267431 -0.0238
-0.0111222 0.0399169 -0.022475
0.0227376 0.0527664 -0.0167
-0.0321924 0.00890773 -0.0208
-0.0467403 0.0473935 -0.03514
-0.031751 0.00886289 -0.0214
-0.0312201 0.00891068 -0.022
-0.0142064 0.0543087 -0.0169333
-0.0017593 0.0142655 -0.0283
-0.0307363 0.00897029 -0.0224333
-0.0227618 0.0153793 -0.02785
-0.0152549 0.0134627 -0.03055
-0.02983 0.00884686 -0.02345
-0.0337202 0.0193441 -0.02135
0.00719972 0.00885168 -0.02155
-0.0292923 0.00880897 -0.02395
-0.00896085 0.0153017 -0.0303
-0.024672 0.00849298 -0.02635
0.00936271 0.0463837 -0.002
-0.00525911 0.0224643 -0.029375
-0.0236413 0.00845935 -0.0268
-0.0333158 0.0451456 -0.0161
-0.0369389 0.0127966 -0.01715
-0.0230061 0.00842199 -0.0273
-0.0217401 0.00847504 -0.02835
-0.0213353 0.00849716 -0.0286333
-0.021198 0.0309085 -0.0256
-0.0375297 0.0437643 -0.0142
-0.0211287 0.0083099 -0.0288
-0.0206894 0.0084219 -0.02905
-0.0197125 0.00839528 -0.0294
-0.0506625 0.0467489 -0.0117
-0.017695 0.00836492 -0.0298
0.013231 0.0144024 -0.0132
0.0102704 0.0473385 -0.007075
-0.0137022 0.0124259 -0.0306
-0.017176 0.00836492 -0.0298
-0.0161093 0.00841579 -0.0297
-0.0299107 0.0248785 -0.0242
-0.0138369 0.00838576 -0.029525
-0.00923712 0.027362 -0.028525
-0.0205104 0.0533673 -0.0218
0.0329529 0.0476853 -0.0108
-0.0127934 0.00838383 -0.02955
-0.010828 0.00837251 -0.0297
0.026605 0.0480638 -0.0106
-0.0105587 0.00836492 -0.0298
-0.00963952 0.0083554 -0.029925
-0.00911901 0.00835347 -0.02995
-0.0208292 0.0242607 -0.0283
-0.0316707 0.0102333 -0.0217
-0.00864254 0.00830905 -0.0299667
-0.00719171 0.00824264 -0.0297
-0.00629257 0.00838576 -0.029525
-0.00562864 0.0400747 -0.0216
0.00431826 0.0178156 -0.024025
-0.0516846 0.0457067 -0.0095
-0.00565882 0.00828 -0.0292
-0.00526861 0.00841233 -0.029175
-0.00411182 0.00831737 -0.0287
-0.00372196 0.00845595 -0.0286
8.33999e-05 0.00849672 -0.0263
-0.0412548 0.0453483 -0.0293667
0.00306852 0.00860881 -0.0248
0.0043406 0.00884879 -0.023425
0.00533649 0.0089077 -0.02265
0.00633602 0.00895325 -0.02205
-0.0521864 0.0252622 0.00955
0.0104147 0.00910203 -0.0182
-0.000182073 0.0134166 -0.0277
0.0107806 0.00916928 -0.0173
0.0157085 0.00975394 -0.0108333
-0.0516984 0.0183469 0.00409999
-0.0228075 0.00932385 -0.027625
0.016251 0.00982618 -0.01055
0.0173413 0.00983949 -0.010375
-0.0371644 0.00952759 -0.0164
-0.0366982 0.00951989 -0.0165
0.00468765 0.0511869 -0.00560001
0.0172838 0.0322242 0.00445
-0.0351888 0.00946593 -0.0172
-0.0316975 0.00926616 -0.0216
0.0132788 0.0465224 -0.0035
-0.0256916 0.0163553 -0.026575
0.00665448 0.0559658 -0.00740001
-0.0268317 0.00894529 -0.0257
0.00528222 0.0358375 -0.0175
-0.0265393 0.00893746 -0.0258
-0.030027 0.0194598 -0.0248
-0.0261578 0.00888485 -0.0259
-0.02027 0.0103673 -0.0292
-0.0243398 0.00887089 -0.02665
-0.0237484 0.00884933 -0.026925
-0.0146649 0.0458326 -0.0444667
0.011791 0.0571151 -0.00580001
-0.0232921 0.00869508 -0.0272
-0.0230877 0.00886165 -0.0273333
-0.00290959 0.0481101 -0.0244
-0.0223955 0.00865654 -0.0277
-0.02027 0.00854092 -0.0292
-0.0180842 0.00849467 -0.0298
-0.00281143 0.00861029 -0.0283
-0.00215951 0.00876529 -0.028
-0.0516816 0.0447205 -0.0261
-0.0488633 0.0456779 -0.00410001
-0.00111436 0.00884349 -0.027
-0.0361383 0.0184689 -0.0179
-0.0507746 0.0452077 -0.00455001
-0.000317595 0.00888262 -0.0265
0.000217234 0.00889442 -0.02635
-0.0257008 0.0448056 -0.0495667
0.0115478 0.0543756 -0.0241
0.00278753 0.00884925 -0.0252
0.00677257 0.00911905 -0.0217
-0.0066391 0.0393565 -0.0226333
0.00720878 0.00928187 -0.0214
0.0714512 0.0496768 -0.0071
0.00822756 0.00918842 -0.0208
0.00882213 0.00936405 -0.02035
0.00922232 0.00934163 -0.0200333
0.0097603 0.00945399 -0.0192
0.0104318 0.00940426 -0.018
0.0119085 0.00981785 -0.01455
0.0270897 0.0461594 0.0088
-0.0352328 0.0118898 -0.01755
0.0237563 0.0475473 -0.0078
0.00990726 0.0433841 -0.00120001
0.0122672 0.00986866 -0.0139
0.0171323 0.0139144 -0.0108
0.0268894 0.0468616 0.0077
-0.0103734 0.0283091 -0.0280667
0.013647 0.00985905 -0.0121
-0.00291211 0.0476068 -0.0243
0.0143162 0.0099053 -0.0115
0.0773161 0.0493723 -0.0045
-0.00442953 0.0428411 -0.0201
-0.0246982 0.0183496 -0.02745
0.01594 0.00997468 -0.0106
0.0182817 0.0100055 -0.0102
-0.0369375 0.0425348 -0.0152
-0.0381299 0.00984248 -0.0161
-0.0372614 0.0100127 -0.0164
0.0109884 0.0168461 -0.0182
0.00776079 0.0109482 -0.0215
-0.0167676 0.0329578 -0.0255
-0.0366759 0.00995004 -0.016575
-0.021235 0.0313674 -0.0254
-0.0362031 0.00994001 -0.0167
-0.0126486 0.0129177 -0.0308
0.00314843 0.0297084 -0.0218
0.0123024 0.0340996 -0.0104
0.0123675 0.0496238 -0.0064
-0.035671 0.00997491 -0.0168667
-0.0351888 0.0098997 -0.0172
-0.0286356 0.051907 -0.021
-0.0347278 0.00983014 -0.0174667
-0.02571 0.0122882 -0.0259
-0.0340418 0.00981907 -0.0182
-0.0313126 0.00937379 -0.022
-0.0298172 0.0093918 -0.0235
-0.0241744 0.00899248 -0.0268
-0.021298 0.00898066 -0.0286
-0.019991 0.00892423 -0.0293
-0.0192957 0.00890407 -0.02955
-0.017683 0.00887784 -0.029875
0.00873309 0.0254214 -0.01765
0.0137864 0.0549978 -0.01755
-0.0171682 0.00887983 -0.02985
-0.0161093 0.00884869 -0.0297
-0.0156402 0.00889595 -0.02965
-0.0146074 0.00890005 -0.0296
-0.0142175 0.00890004 -0.0296
0.00467072 0.0344286 -0.0184
-0.0102896 0.0479324 -0.0225
0.00168985 0.0101032 -0.0263
-0.0127876 0.00890005 -0.0296
-0.0122677 0.00890005 -0.0296
0.0833144 0.0485194 0.00335
-0.0117424 0.00889601 -0.02965
-0.0136167 0.0255003 -0.0292
-0.0141834 0.0533525 -0.0171333
-0.0112176 0.00889198 -0.0297
0.0796529 0.0502015 -0.0144
-0.0106885 0.00888392 -0.0298
-0.0106303 0.0152878 -0.0304
-0.0203213 0.02086 -0.0282
0.0778003 0.0490118 0.00894999
-0.00871839 0.00885974 -0.0301
-0.00474985 0.00894029 -0.0291
-0.003198 0.00898264 -0.028575
-0.00267866 0.00886935 -0.02835
-0.0137471 0.0231521 -0.0292
0.0258569 0.0470931 -0.0082
0.000618885 0.0090322 -0.0263
-0.0509846 0.0456575 0.0018
0.0172645 0.0143541 -0.01095
-0.0531824 0.020537 0.006
-0.014204 0.0299578 -0.02765
0.00390426 0.00933934 -0.02415
0.00713636 0.0298448 -0.0170333
-0.0263882 0.0469008 -0.0298
0.00438226 0.00934343 -0.0235333
-0.0282013 0.011351 -0.0245
-0.0261053 0.0307883 -0.0233333
-0.00253927 0.0135592 -0.0287
0.081755 0.0502117 -0.00130001
0.0142127 0.0463539 0.0061
-0.0236797 0.040506 -0.0169
0.00476751 0.00942802 -0.02305
0.00634408 0.00938173 -0.0219
0.00677257 0.00939762 -0.0217
0.00944447 0.00956444 -0.0196
0.00134249 0.0343808 -0.021525
0.0107982 0.00990772 -0.0171
0.0111688 0.00983454 -0.0162
-0.00474562 0.0145419 -0.0292
0.0167824 0.0463119 -0.00505
-0.00183017 0.0327629 -0.0238
0.0143162 0.0103592 -0.0115
0.0149736 0.0103955 -0.01105
-0.0312993 0.00978638 -0.02205
-0.0257021 0.03079 -0.0235
0.015301 0.0104116 -0.01085
-0.0181989 0.0333797 -0.024975
0.0167663 0.0103191 -0.0101
0.00633506 0.0559024 -0.00755001
-0.0257282 0.0194874 -0.027
0.0176976 0.0103271 -0.01
-0.0382271 0.0103287 -0.0161
-0.0378076 0.0102719 -0.0162
-0.0344696 0.0100034 -0.0177
-0.0418095 0.0428633 -0.0138
-0.0227042 0.0453782 -0.05005
-0.00628263 0.0121387 -0.0297
-0.0308287 0.00980067 -0.0224333
-0.0517699 0.0454146 -0.0112
-0.0265393 0.0094753 -0.0258
-0.00474024 0.0219532 -0.029325
-0.0199716 0.0441597 -0.0475
0.0173019 0.0463187 -0.00595
-0.0251851 0.00942131 -0.02645
0.000615891 0.022977 -0.02685
-0.0237489 0.00932032 -0.0271333
-0.0169543 0.0214219 -0.0287
0.00144963 0.0264011 -0.0241
-0.0232405 0.00933834 -0.02745
0.0252063 0.0468976 -0.0414
-0.0217498 0.00926788 -0.0283
-0.0162677 0.00901367 -0.0298
-0.00323803 0.0429001 -0.0171
-0.00272207 0.00921851 -0.0283667
-0.00163853 0.0093301 -0.02755
-0.00111387 0.00937159 -0.02705
0.00233592 0.0337917 -0.02065
-0.000716662 0.00939233 -0.0268
0.0399165 0.0466865 -0.00580001
-0.000317455 0.00941307 -0.02655
-0.0257055 0.0213311 -0.0271
-0.00744103 0.0476026 -0.0216
-0.00577361 0.0109898 -0.0295
0.0077215 0.0133915 -0.0221
0.0122313 0.0464289 0.00109999
-0.00370278 0.0138928 -0.029175
0.000217139 0.00942546 -0.0264
0.000887407 0.00930812 -0.0262
0.0107468 0.026343 -0.016025
0.00677829 0.00982378 -0.0216
0.0243908 0.0470262 -0.0413333
0.0769357 0.0484534 -0.0224667
0.00883319 0.00993994 -0.0202
0.00944447 0.00984796 -0.0196
0.0114326 0.0220251 -0.0165
0.013592 0.0573813 -0.018
-0.00222893 0.0323216 -0.0244
0.0111688 0.0101261 -0.0162
-0.034246 0.0142542 -0.0195
0.0126139 0.0103551 -0.0134
-0.0277774 0.0398567 -0.018
-0.0553629 0.0441025 -0.0106
0.012963 0.010396 -0.0129
0.0162949 0.0106168 -0.0102
0.0167411 0.0107436 -0.0099
0.0172649 0.0106495 -0.0098
-0.0262483 0.0327409 -0.0229
-0.0371343 0.0103923 -0.0165
-0.0285213 0.0180091 -0.0254
-0.0351888 0.010478 -0.0172
0.00861801 0.0524544 -0.00600001
-0.031403 0.0167761 -0.0227
-0.0344273 0.0104225 -0.01785
-0.0200333 0.0478371 -0.0276
-0.0335194 0.01032 -0.01905
-0.0187542 0.00993321 -0.029675
-0.0330835 0.0101315 -0.0196
-0.00732158 0.0105803 -0.0297
-0.0302207 0.00998314 -0.023
-0.031702 0.0444269 -0.0305667
-0.0281037 0.00982101 -0.0249
-0.020605 0.0174748 -0.0288
0.000862601 0.0464589 -0.017
-0.027307 0.00977835 -0.0254
-0.0256199 0.00956769 -0.0263
-0.0201791 0.0738982 -0.00545
-0.0221985 0.0324017 -0.0246
-0.0308111 0.0163408 -0.02285
0.00718227 0.0253208 -0.0195
-0.019991 0.00944558 -0.0293
-0.0266967 0.0298682 -0.02335
-0.0197125 0.00943705 -0.0294
-0.0342965 0.0232842 -0.0209667
-0.0192957 0.00942425 -0.02955
-0.0187932 0.00945474 -0.0297
-0.0186032 0.00927317 -0.0298
0.0157678 0.0465854 -0.00140001
-0.0176789 0.00939438 -0.0299
-0.0171642 0.00939655 -0.029875
-0.0156331 0.00941145 -0.0297
-0.020178 0.0503804 -0.0245
-0.0133046 0.00941782 -0.029625
-0.0127818 0.00941566 -0.02965
0.0147257 0.0465761 -0.000450008
-0.0237376 0.0727956 -0.00563334
-0.0172374 0.028373 -0.0673
-0.0117371 0.00941145 -0.0297
-0.0286115 0.0528434 -0.0211
0.000612897 0.0122592 -0.0274
-0.0111642 0.00944617 -0.0298
-0.0106836 0.00939865 -0.02985
-0.0355249 0.0428973 -0.015
0.00308134 0.0393657 -0.0131
-0.0101556 0.00939012 -0.02995
-0.00910658 0.00937732 -0.0301
-0.00512461 0.0423292 -0.02035
-0.00435033 0.0108793 -0.0293
0.0682411 0.0478607 0.00649999
-0.00871839 0.00937732 -0.0301
-0.00367095 0.048109 -0.0121
0.0759742 0.0490313 -0.0063
-0.00781791 0.00938375 -0.030025
0.021251 0.046943 -0.0152
-0.00679593 0.00940292 -0.0298
0.0103691 0.0286993 -0.0153
-0.00628542 0.00941572 -0.02965
0.00576589 0.0278864 -0.01945
-0.0209338 0.0425467 -0.0177
-0.00423044 0.00946902 -0.029025
-0.0262589 0.0113528 -0.02585
0.0161428 0.0197365 -0.0064
-0.00371361 0.00948398 -0.02885
0.0563554 0.0477029 -0.0537
-0.0284486 0.0102542 -0.0246
-0.00319587 0.00936994 -0.02865
0.014794 0.0299319 -0.0086
-0.000525643 0.0515943 -0.0078
0.0027766 0.00975696 -0.02565
-0.0236791 0.044511 -0.0146
0.00305387 0.00978256 -0.02535
0.0122564 0.0666377 -0.00760001
-0.00215861 0.0233923 -0.02805
-0.0154795 0.0505906 -0.0198
0.00562 0.00988745 -0.0225
-0.0303138 0.0446824 -0.03015
-0.028139 0.044344 -0.0183
0.00945231 0.0102818 -0.0195
-0.00331355 0.0328234 -0.02455
-0.0521262 0.0452194 -0.0064
-0.00271296 0.0637709 -0.0123
0.0143662 0.062419 -0.0124
0.0111598 0.0104092 -0.0163
0.0118753 0.010527 -0.0149
0.0344608 0.0471708 -0.0097
0.0129579 0.0108406 -0.01295
0.013304 0.010879 -0.0125
-0.00358763 0.0153938 -0.0287
0.013647 0.0109132 -0.0121
0.0139918 0.0109473 -0.0117
0.00443258 0.0148739 -0.0246
0.0143162 0.0109644 -0.0115
0.0153187 0.0108804 -0.0107
0.0118515 0.0244708 -0.01515
0.00617522 0.0339699 -0.01695
0.0156474 0.0108972 -0.0105
-0.0152519 0.0454245 -0.0445143
0.0129578 0.0570031 -0.00680001
-0.0339904 0.0132722 -0.0194
0.01632 0.0109393 -0.01
0.0169714 0.0109646 -0.0097
-0.0387134 0.0110095 -0.0161
0.000774721 0.0313354 -0.023
-0.000710331 0.022652 -0.0278
-0.0382526 0.010857 -0.016175
0.073227 0.0504049 -0.0260833
-0.0296259 0.0104404 -0.0235333
-0.0363115 0.0108 -0.016825
-0.0357096 0.010827 -0.0170667
-0.0325548 0.0104779 -0.0205
-0.0320843 0.0104165 -0.0212
-0.0252689 0.0459112 -0.0286333
0.0047349 0.0112781 -0.02385
0.00423172 0.0507797 -0.00500001
-0.0288199 0.0100171 -0.0242
0.00495496 0.0391059 -0.011
-0.0268317 0.00988733 -0.0257
-0.0265161 0.00987003 -0.0259
-0.0246966 0.00992104 -0.02685
-0.0176849 0.0411127 -0.0202
-0.0243092 0.00986359 -0.027
-0.0236486 0.00987279 -0.0274
0.0162958 0.014304 -0.0114
-0.0229244 0.00971433 -0.0277
-0.0227211 0.00987886 -0.0278333
-0.0166721 0.0155153 -0.0297
-0.0171787 0.0348624 -0.02455
-0.0217498 0.00979394 -0.0283
-0.0343427 0.0109708 -0.01815
-0.00315265 0.00972103 -0.0286333
-0.00280891 0.00978517 -0.0284
-0.00215951 0.00982025 -0.028
-0.00163893 0.00986192 -0.027525
0.0177869 0.0117463 -0.00896667
-0.000317135 0.00993638 -0.026675
-0.0507778 0.0583237 -0.03335
0.00124362 0.0100139 -0.0263
0.00142336 0.00984408 -0.0262
0.0237342 0.0465394 -0.00345
-0.0332839 0.0119444 -0.0199
0.00187057 0.0099363 -0.0261667
-0.0453178 0.0453295 -0.0323
0.00361107 0.00996519 -0.0248
0.00475324 0.0100863 -0.0234
-0.0172305 0.0182839 -0.02945
0.00532058 0.0102585 -0.023
-0.00675692 0.0283378 -0.0283
-0.00474771 0.0193776 -0.02915
0.00580287 0.0102534 -0.0225333
0.00715814 0.0104396 -0.0214667
0.0958557 0.0644408 -0.00535
0.00736069 0.0102766 -0.0212
-0.0216719 0.0143455 -0.0287
0.00838195 0.0104691 -0.0206
-0.0527652 0.023718 0.0087
0.0621382 0.0477222 -0.04735
0.000348672 0.0144189 -0.0271
-0.0151205 0.0187705 -0.02965
0.00883319 0.0103631 -0.0202
-0.0219838 0.0331669 -0.0243
0.0107982 0.0106313 -0.0171
0.0756248 0.0479574 -0.0117
-0.0322592 0.0177579 -0.0226
0.00981383 0.0569604 -0.0069
0.0122379 0.0108821 -0.0142
0.01594 0.0127171 -0.0106
0.0148706 0.0112544 -0.0110667
0.00722399 0.027323 -0.0188
-0.0224784 0.0476738 -0.0286
-0.00164011 0.0239154 -0.02745
-0.0284733 0.0105351 -0.0245
0.0153187 0.0111849 -0.0107
0.010274 0.046421 -0.00285
0.0156474 0.0113547 -0.0105
-0.0351602 0.0109029 -0.0173
-0.0334779 0.0107341 -0.0192
-0.0305483 0.0104142 -0.0228
0.0195631 0.0584658 -0.0045
-0.0301948 0.0103875 -0.0231
-0.0376294 0.0169018 -0.0171
0.0307969 0.0468438 -0.0035
-0.0331453 0.0128805 -0.0204
-0.0517895 0.0450224 -0.00605
-0.0281159 0.0103676 -0.02485
0.00615263 0.0318247 -0.0174
-0.027307 0.0103181 -0.0254
-0.0359311 0.0153614 -0.0186
-0.0247805 0.0273465 -0.02585
-0.020708 0.0098677 -0.02895
-0.015356 0.0495616 -0.0229
-0.0321978 0.037189 -0.0192
-0.0192923 0.0448975 -0.0471
-0.02027 0.00997594 -0.0292
-0.0377313 0.0114147 -0.01645
-0.0127496 0.0334931 -0.0256667
-0.019991 0.00996695 -0.0293
-0.0185813 0.0283339 -0.0674
-0.0182139 0.00992193 -0.0298
0.00626191 0.0459586 -0.00230001
-0.0501072 0.0499971 -0.03705
-0.016657 0.00992193 -0.0298
-0.0427549 0.0428675 -0.0139333
-0.0161812 0.00996519 -0.0298
-0.0462335 0.0464931 -0.03455
-0.0514523 0.0180062 0.005
0.00883286 0.0453752 -0.000100002
-0.0146463 0.00989356 -0.0296333
-0.0138212 0.00993537 -0.02965
-0.0127761 0.00993093 -0.0297
-0.0122629 0.0134319 -0.0308
0.00722417 0.0429778 -0.0025
-0.0112023 0.00991733 -0.02985
-0.0307848 0.0113655 -0.02295
-0.0106787 0.00991289 -0.0299
-0.00910658 0.0098949 -0.0301
-0.00833399 0.00989945 -0.03005
0.0385038 0.0473789 -0.00740001
-0.00782502 0.00991067 -0.029925
0.00607736 0.028156 -0.0189
0.0748652 0.0487484 0.00204999
-0.00371188 0.00987215 -0.0289
0.00277297 0.0102821 -0.0258
0.0031862 0.0103135 -0.02545
-0.0166192 0.0143009 -0.03005
0.00889356 0.0596018 -0.00660001
0.00388572 0.0102453 -0.0247
-0.000314417 0.020438 -0.027625
0.012217 0.0293169 -0.0113
0.013401 0.056926 -0.0055
0.00416985 0.0104125 -0.02435
0.00474713 0.0104846 -0.02355
-0.0175652 0.0127764 -0.0298
-0.050174 0.0263716 0.00985
0.00676684 0.010503 -0.0218
0.00922232 0.0108484 -0.0200333
0.0138644 0.029407 -0.00910001
0.0209914 0.0469933 0.000799999
0.00944447 0.0106985 -0.0196
-0.0276337 0.0364093 -0.018
-0.0161555 0.0394236 -0.0224333
-0.00215996 0.062419 -0.0124
0.00976838 0.010743 -0.0191
0.0104276 0.0109798 -0.01805
-0.0442536 0.0463397 -0.0299
0.0068403 0.0183375 -0.0221333
0.0114974 0.0110362 -0.0158
-0.0192012 0.0463385 -0.0500875
0.012589 0.0113759 -0.01365
-0.0227501 0.0410059 -0.018
0.0129477 0.01143 -0.01305
-0.0433028 0.0551004 -0.0368
0.0106693 0.0543539 -0.00533333
0.0132936 0.0114704 -0.0126
-0.0186093 0.046794 -0.0266
0.0138139 0.0113783 -0.01195
0.0143162 0.0114183 -0.0115
0.0725436 0.0488967 0.0086
0.0146415 0.011436 -0.0113
-0.0383906 0.0112922 -0.0162
-0.0381448 0.011471 -0.0163667
-0.0372496 0.0114009 -0.0166
-0.0356893 0.0169547 -0.01845
-0.0367838 0.0112466 -0.0167
0.00364131 0.0664686 -0.0144
-0.0362674 0.0113663 -0.016975
-0.0351992 0.011366 -0.0175
-0.0339021 0.0110641 -0.0187
-0.0360051 0.0163957 -0.01835
-0.0325003 0.0108817 -0.0207
-0.0320438 0.0109621 -0.02135
-0.00929863 0.0471452 -0.0192
-0.0316306 0.0109159 -0.02185
-0.0308637 0.0108419 -0.02265
-0.00922469 0.0268008 -0.028675
-0.0297258 0.0108091 -0.0235
-0.0252852 0.0104771 -0.0266
0.0672867 0.0488289 0.0063
-0.0246857 0.0104493 -0.0269
-0.00112336 0.0268842 -0.0261
-0.00894845 0.0304762 -0.0272
0.0107437 0.0464092 -0.00095
-0.0236329 0.0103962 -0.027475
-0.0227567 0.0103593 -0.027875
0.0136379 0.0291569 -0.00930001
-0.00284667 0.0281603 -0.0269
-0.0217401 0.0103154 -0.02835
0.00277054 0.0108104 -0.0259
-0.0149134 0.0505906 -0.0198
-0.0121157 0.0100517 -0.0298
0.0132414 0.0214362 -0.0131
-0.00332106 0.0102692 -0.02885
-0.00681443 0.0198368 -0.0295
-0.00675142 0.0332995 -0.026175
-0.00215855 0.010343 -0.02805
-0.00159424 0.0103436 -0.0275667
-0.00111343 0.010298 -0.0271
0.000750965 0.0104793 -0.026575
-0.022003 0.0108412 -0.02835
0.00177762 0.0104509 -0.0264
-0.010606 0.0134504 -0.03065
0.00568474 0.0108493 -0.0230667
-0.000314598 0.0228349 -0.02755
0.00588666 0.0106993 -0.0227
0.0168293 0.061294 -0.0153
-0.00369404 0.0593186 -0.0130333
0.00830732 0.0109476 -0.021
0.0320161 0.0463705 -0.00580001
-0.0217248 0.0318969 -0.02495
0.00975222 0.0110094 -0.0193
-0.0327648 0.0472028 -0.0512
0.0202811 0.0465137 0.0077
0.0118563 0.0128631 -0.0151
0.0142995 0.0118582 -0.01165
0.0149678 0.0119092 -0.0111
-0.00744469 0.0238052 -0.0298
0.015301 0.0119321 -0.01085
0.0159893 0.0118394 -0.0102
0.0763053 0.0485702 0.0035
-0.0324458 0.0112841 -0.0209
0.00408753 0.0407586 -0.0096
0.0112099 0.0659834 -0.0089
-0.0131177 0.0361326 -0.0244
-0.0312329 0.0110129 -0.0223
-0.0172011 0.0354521 -0.0244
-0.0214219 0.0417991 -0.0182
-0.0288448 0.0109809 -0.0241
-0.0146123 0.0458588 -0.0229667
-0.0268434 0.0108342 -0.02565
-0.0262129 0.0107963 -0.02605
0.0239601 0.0469217 0.0068
-0.0153636 0.041503 -0.0207
-0.0256941 0.0107216 -0.0263667
-0.0341429 0.0219507 -0.02085
-0.019991 0.0104883 -0.0293
-0.0261581 0.0447134 -0.0468
-0.0182305 0.0104504 -0.0297
0.015013 0.0460097 0.0072
-0.0166457 0.0104338 -0.029875
-0.00530073 0.0268429 -0.0285
-0.0156622 0.0104842 -0.0298
-0.0155033 0.0103205 -0.0297
-0.0149838 0.0103205 -0.0297
-0.0142267 0.0403648 -0.021975
-0.0147241 0.0104504 -0.0297
-0.0122399 0.0104361 -0.02985
0.0753405 0.0487313 0.00199999
-0.0117132 0.0104291 -0.029925
-0.0297003 0.0159165 -0.0236
-0.0101441 0.0104148 -0.030075
-0.00719153 0.052792 -0.0163
-0.0485578 0.0447659 -0.0246
-0.00962855 0.0104172 -0.03005
-0.00911486 0.010422 -0.03
-0.0210714 0.0488907 -0.027
-0.00864254 0.0104684 -0.0299667
-0.014314 0.0288545 -0.027825
-0.00628832 0.0104599 -0.0296
-0.00577361 0.0104693 -0.0295
-0.00525794 0.0104788 -0.0294
-0.0118279 0.0577598 -0.0155333
-0.00474134 0.0104883 -0.0293
0.00115284 0.0227909 -0.02645
0.0566897 0.0476098 -0.0535
0.0212079 0.0595924 -0.0052
0.00382782 0.0558817 -0.00796667
-0.0304561 0.0225607 -0.0242
-0.031403 0.0123566 -0.0227
8.30331e-05 0.0105919 -0.0268
-0.0515409 0.0222424 0.00819999
-0.0267599 0.0458705 -0.05135
0.00186621 0.0108044 -0.0264333
0.00222534 0.0107725 -0.0263
0.00374117 0.010898 -0.024975
-0.00578406 0.0232615 -0.0293
0.00444986 0.0109762 -0.02415
-0.0220939 0.0197395 -0.0283333
0.00849398 0.0111346 -0.021
0.00924101 0.0113316 -0.0204
-0.0106058 0.0608426 -0.0138
-0.028428 0.0387072 -0.0189
-0.0450287 0.0550906 -0.0359
-0.0326399 0.0456 -0.01645
0.00940524 0.0112188 -0.0201
-0.00126304 0.0653529 -0.01195
-0.0277227 0.0449586 -0.0201
0.00972799 0.0112656 -0.0196
0.000198412 0.0564174 -0.00936667
-0.034679 0.0148249 -0.019475
0.0100531 0.0114546 -0.0191
-0.0344668 0.0219785 -0.0207
0.0129925 0.0303182 -0.0096
0.0122282 0.0119095 -0.0143
-0.00372443 0.0173868 -0.028525
-0.0152421 0.0147375 -0.0303333
0.0267036 0.0471268 0.00119999
0.012584 0.0118176 -0.0137
-0.0516853 0.0555822 -0.03355
0.0129426 0.0118738 -0.0131
-0.0062403 0.0378829 -0.0232
-0.00423137 0.0149603 -0.029
-0.0181867 0.0239816 -0.028375
0.0163263 0.0123216 -0.00995
-0.0347094 0.0153378 -0.0195333
0.0817387 0.0501067 -0.0051
-0.000721094 0.0254091 -0.0261
0.0168439 0.0123642 -0.0095
0.0233465 0.0503471 -0.0185667
0.00970375 0.012793 -0.0199
-0.0102202 0.0319103 -0.02635
0.0180429 0.0124495 -0.0086
-0.0376854 0.0118369 -0.0166
0.0123567 0.0234161 -0.0145
-0.0346439 0.0118365 -0.0181
-0.0296483 0.0113 -0.023625
-0.0101095 0.0119271 -0.03045
-0.0259104 0.010916 -0.0262
0.0102693 0.0253697 -0.0165
0.00525887 0.0466375 -0.0442
-0.014721 0.0309555 -0.0270667
-0.0249741 0.0108584 -0.0268
-0.0246857 0.010982 -0.0269
-0.00520536 0.0430607 -0.0248
-0.0231889 0.0109044 -0.0277
-0.0242366 0.0299558 -0.0246
0.00528703 0.0518067 -0.00645
-0.0227415 0.01088 -0.02795
0.00489259 0.0148047 -0.0244333
-0.0223057 0.0108606 -0.02815
0.0755683 0.0486627 0.0018
-0.0211287 0.0107975 -0.0288
0.0143093 0.046496 0.00029999
-0.0149702 0.0105707 -0.0298
0.0158414 0.0149098 -0.0114
-0.0546538 0.0442976 -0.010475
0.00627403 0.0453968 -0.0442
-0.00370525 0.0107683 -0.0291
0.0197578 0.0467938 0.00639999
-0.00176639 0.0108897 -0.02785
-0.00871046 0.0147985 -0.0302
-0.00358917 0.0505847 -0.0096
-0.0302867 0.0193292 -0.0245
-0.00150497 0.0109091 -0.02765
-0.00110998 0.0109286 -0.02745
0.00529557 0.0113072 -0.02355
0.0122088 0.0144025 -0.0145
0.00557696 0.0113218 -0.0234
-0.0291371 0.018462 -0.0251
-0.0499912 0.0467257 -0.0134
-0.0541646 0.0451854 -0.0127
-0.0331895 0.0379161 -0.0199
0.00586407 0.0113461 -0.02315
0.0122477 0.0263073 -0.0141
-0.0471954 0.0514449 -0.0361667
-0.0365706 0.0456852 -0.0457
-0.0345535 0.0242868 -0.0204
-0.0362125 0.0453785 -0.044
0.00682289 0.0114618 -0.0224333
0.00788686 0.0113476 -0.0217
0.0119316 0.0542784 -0.0042
0.00906964 0.011434 -0.0208
0.0103805 0.011788 -0.0186
0.0107367 0.0118656 -0.0178
0.0114696 0.0118848 -0.0161
0.012574 0.0121054 -0.0138
-0.0302287 0.0118608 -0.0235
-0.00261956 0.0217998 -0.029
0.0129324 0.0123123 -0.0132
0.013615 0.0123899 -0.0124
-0.0461566 0.0470052 -0.0217
0.00487172 0.0118252 -0.02385
0.0103097 0.0347753 -0.0124
-0.0442483 0.0455267 -0.0324333
0.0142939 0.0123069 -0.0117
-0.0386197 0.0122926 -0.0164
-0.0381522 0.0122826 -0.0165
-0.0370141 0.012098 -0.0169
-0.0357089 0.0120488 -0.0174
-0.0172395 0.0257812 -0.02855
-0.0176538 0.04637 -0.0497
-0.0328225 0.0118799 -0.02055
-0.0212427 0.0159895 -0.0282
-0.027881 0.0114671 -0.0247
-0.0406851 0.0433777 -0.0136
-0.0275616 0.0114472 -0.0249
-0.0258438 0.0113726 -0.0261
-0.0118132 0.0180305 -0.0302
-0.0141832 0.0524027 -0.01755
0.0209974 0.047087 0.00309999
-0.0256199 0.0111741 -0.0263
-0.0251518 0.0112783 -0.0266
-0.019991 0.0108793 -0.0293
-0.0182305 0.0109698 -0.0297
-0.0176517 0.0109167 -0.0298
-0.0166457 0.0109524 -0.029875
-0.0387146 0.0242127 -0.0142
-0.00114444 0.0319009 -0.02395
-0.015209 0.0109449 -0.02995
-0.0231898 0.0319133 -0.0244
-0.0143149 0.0109549 -0.02985
-0.014742 0.0463771 -0.0501667
-0.0132745 0.0109524 -0.029875
-0.0330835 0.0376329 -0.0196
-0.011178 0.0561214 -0.0157
0.0105644 0.0308858 -0.01295
-0.00442892 0.0288568 -0.0273
-0.0127471 0.0109449 -0.02995
-0.0116946 0.01093 -0.0301
-0.0142652 0.0388406 -0.0228
-0.00864254 0.0109001 -0.0299667
-0.00783394 0.0109599 -0.0298
-0.0534569 0.0445456 -0.00930001
0.00321113 0.0273179 -0.0229
0.0259791 0.0472914 0.0027
-0.00680827 0.0109798 -0.0296
-0.00629111 0.0109848 -0.02955
-0.00529973 0.010953 -0.0294333
-0.0314833 0.0146036 -0.0224
0.0809963 0.0485795 0.0087
0.0232885 0.0466124 -0.0051
-0.00473915 0.0108744 -0.02935
-0.000712864 0.011066 -0.0274
-0.0111329 0.053855 -0.0162
0.00114929 0.0112583 -0.0268
0.00181978 0.0112832 -0.02655
0.00249747 0.0113279 -0.0261
-0.0117274 0.0473229 -0.0513667
0.00374201 0.0114423 -0.02495
0.00444794 0.0113805 -0.0242
-0.0197129 0.0457759 -0.0496833
0.00831365 0.0117779 -0.021575
0.00875945 0.0116754 -0.0212
0.0184548 0.0193799 -0.00560001
-0.0282318 0.0454548 -0.0303667
-0.0106351 0.0114216 -0.03035
0.00905442 0.011835 -0.021
-0.0217355 0.0367592 -0.02195
-0.00860655 0.0197695 -0.029875
0.0831929 0.0481199 0.0052
0.00969971 0.0119395 -0.01995
0.0118515 0.012417 -0.01515
-0.0263445 0.0517959 -0.0193
0.0152417 0.0127948 -0.01135
0.0156843 0.0128769 -0.0110333
-0.0218177 0.0189448 -0.028625
0.00557457 0.0118659 -0.02345
0.0178338 0.0128743 -0.00900001
-0.0468287 0.0474604 -0.0089
-0.037159 0.0123878 -0.0169
0.017774 0.0166647 -0.00830001
-0.0202913 0.0406839 -0.0198
-0.0366347 0.0123576 -0.0172
-0.0111566 0.017885 -0.0303
-0.0308303 0.0462354 -0.05165
