ply
format ascii 1.0
comment Created by Open3D
element vertex 1607
property float x
property float y
property float z
end_header
0.0327523 0.0446349 -0.0451
0.0197936 0.00355636 -0.0113
-0.00156268 0.0103108 -0.0121
0.0208793 0.00367067 -0.0108333
-0.00267717 0.0191763 -0.00915001
-0.00664963 0.00635718 -0.0098
0.0163966 0.0436992 -0.02735
0.0214083 0.00372518 -0.0107
0.048436 0.0226865 -0.04604
0.0223563 0.00373106 -0.0105
0.00176705 0.016795 -0.010875
0.0401571 0.00949807 -0.0302
-0.0265236 0.0430385 -0.0379333
0.0228137 0.00373106 -0.0105
0.0522405 0.0440462 -0.0298
0.0243572 0.00373388 -0.0104
0.0278668 0.00373382 -0.0104
0.0307617 0.0347548 -0.03005
0.0117288 0.00573876 -0.0133
0.0773101 0.0192339 -0.055125
0.029497 0.0436869 -0.0532
0.0741469 0.0345995 -0.0438
0.0283246 0.00373383 -0.0104
0.0287824 0.00373382 -0.0104
0.0508748 0.00319513 -0.0291
0.0294027 0.0032303 -0.0231
0.0363681 0.00333774 -0.02415
0.0158974 0.0447993 0.00119999
0.0373712 0.00334206 -0.024
0.0378938 0.0032984 -0.0239333
0.0383934 0.00321095 -0.0238
0.0393773 0.00332691 -0.024525
0.0280557 0.0126785 -0.02355
0.0193611 0.0447358 0.001
0.0397119 0.00335833 -0.025
0.039697 0.00852287 -0.02595
-0.00865031 0.0551358 0.00299999
0.0399336 0.00325669 -0.0254
0.070409 0.0128135 -0.05542
0.0406907 0.00315568 -0.0258
-0.015728 0.0442114 -0.0558333
-0.0435148 0.0431792 0.0094
0.041661 0.00330317 -0.02535
0.0103152 0.0217489 -0.0085
0.0424034 0.00331896 -0.0248
0.0443675 0.00322753 -0.0232
-0.0301673 0.0426962 -0.05355
0.0320992 0.0431509 -0.0267
0.0409234 0.00518501 -0.025525
0.0474896 0.00316668 -0.0285667
0.0327807 0.011807 -0.02665
0.0422749 0.0133246 -0.0327
0.0493453 0.00321455 -0.028425
0.0452252 0.00477262 -0.0224
0.0108743 0.0137357 -0.01105
-0.0203431 0.0408102 0.0072
0.0513479 0.00314586 -0.0293
-0.0238608 0.0041803 -0.00060001
-0.0136662 0.0392295 0.0009
-0.0234988 0.0041743 -0.000799999
-0.0265074 0.0430715 -0.00220001
-0.0221 0.004321 -0.00135001
-0.0211503 0.00425071 -0.00186667
-0.020704 0.00430241 -0.00195
-0.0197001 0.00429618 -0.00215001
-0.0247082 0.0429519 -0.0286
0.038306 0.00417403 -0.02365
0.0847896 0.0303854 -0.0413
-0.0186924 0.00428845 -0.00240001
0.028738 0.0444733 -0.0394
-0.0265219 0.0429287 -0.03685
-0.0176559 0.00427274 -0.0029
0.0353094 0.0203205 -0.0304
-0.00556042 0.043575 -0.0591
-0.016178 0.00430546 -0.00356667
-0.0151509 0.00428761 -0.00413334
-0.0262189 0.0430728 -0.00115
-0.0145728 0.00422138 -0.00455
0.0542695 0.00849837 -0.0361
0.0518388 0.00915598 -0.035575
0.0224085 0.00910788 -0.0113667
-0.0135405 0.00419795 -0.0053
-0.0121761 0.00416517 -0.00635
0.010018 0.0435462 -0.0602
-0.0116822 0.00415738 -0.00660001
-0.00958244 0.00397638 -0.00740001
0.00584126 0.0151948 -0.01155
-0.0067007 0.0039344 -0.0088
-0.00389026 0.00390441 -0.0098
0.0259169 0.0287079 -0.0305
0.00518943 0.00381744 -0.0127
-0.00876306 0.0242855 -0.00560001
0.00945366 0.00378446 -0.0138
-0.00777602 0.0416021 -0.00060001
0.0105021 0.00378746 -0.0137
0.0263678 0.00820774 -0.0187
0.0211038 0.00387742 -0.0107
0.0657693 0.0150901 -0.05356
0.0214437 0.00779321 -0.0114
0.028459 0.00366353 -0.02245
0.0143603 0.0307469 0.000799999
0.0307422 0.00369017 -0.0230667
0.0587564 0.0437632 -0.0366
0.0312749 0.00368801 -0.0231333
-5.68778e-05 0.0042905 -0.012
0.043809 0.00358602 -0.0234667
0.00990968 0.0282415 -0.0056
0.029947 0.00474328 -0.023125
0.0457237 0.00372173 -0.0220667
-0.0416471 0.0421322 -0.0393333
0.0678775 0.0277064 -0.04605
0.050141 0.00333764 -0.0287
0.0883262 0.0317704 -0.0424
0.052749 0.00331215 -0.02955
-0.02521 0.00451503 -0.000400007
-0.0247168 0.00467939 -0.000400007
0.00941021 0.0462924 -0.00130001
-0.0242065 0.00467616 -0.000500008
-0.0234988 0.00466599 -0.000799999
-0.0247257 0.0433209 -0.000350006
0.0608911 0.012313 -0.0504667
-0.0226306 0.00465593 -0.00110001
0.0469424 0.0433657 -0.0358
-0.0111857 0.0043048 -0.0069
0.00588446 0.0182019 -0.0106
0.0854194 0.0322664 -0.04236
-0.00893092 0.00427569 -0.0078
-0.00700965 0.00424335 -0.0088
-0.0066956 0.00424011 -0.0089
0.0229162 0.0442508 -0.0425
0.047287 0.0235506 -0.0463
-0.00513629 0.00422718 -0.00930001
-0.0360716 0.0427824 -0.0136
-0.00389026 0.00421101 -0.0098
0.0173513 0.0115249 -0.0103
-0.003267 0.00419807 -0.0102
-0.00295678 0.0041916 -0.0104
-0.0026475 0.00418513 -0.0106
0.060863 0.0182234 -0.05057
-0.00157163 0.00431148 -0.011375
-0.00111481 0.00430223 -0.01165
0.0143844 0.0438332 -0.0525
0.0298361 0.0451119 -0.04892
-0.000610235 0.00434642 -0.0118333
0.0473215 0.0286494 -0.045125
0.00189793 0.00428051 -0.0123
0.0044426 0.00426964 -0.012625
-0.0431196 0.0433953 -0.0281333
0.00533931 0.0042671 -0.0127
0.00631832 0.0453338 -0.0079
0.0059318 0.00426207 -0.01285
0.030626 0.039331 -0.0242
0.00725918 0.00425034 -0.0132
0.00754883 0.00424536 -0.01335
0.00828127 0.0042386 -0.01355
0.00481212 0.0427672 -0.0504167
0.0090079 0.00408164 -0.0138
0.0593249 0.0443931 -0.0544
0.0350066 0.0243353 -0.0348
0.00945366 0.00423023 -0.0138
0.0349354 0.0436333 -0.0413
0.0405827 0.0309703 -0.0394
0.0244058 0.0401463 -0.0246
0.00990728 0.00423357 -0.0137
0.0402259 0.0147135 -0.0354
-0.00363596 0.024181 -0.0079
-0.0111636 0.0429206 -0.060575
0.0103596 0.00423612 -0.013625
0.0108081 0.00423692 -0.0136
0.0112679 0.00424196 -0.01345
0.0414646 0.0360631 -0.0384
0.00639854 0.0122301 -0.0125
0.0133908 0.00425369 -0.0131
0.0454664 0.0439037 -0.0308
0.0142929 0.00425543 -0.01305
-0.00966729 0.0553427 0.00309999
0.0367066 0.00725244 -0.0248
0.0148997 0.00425791 -0.012975
0.0773411 0.0157194 -0.0561286
0.0158095 0.00426126 -0.012875
0.0169002 0.00427218 -0.01255
0.0692931 0.0103707 -0.05145
-0.0417097 0.0441122 -0.0132
0.0193444 0.00425358 -0.0116
-0.0021688 0.0457965 -0.00230001
0.0197859 0.00431229 -0.01135
0.0207832 0.00433079 -0.0108
0.0228489 0.00419483 -0.0103
0.00842547 0.0147641 -0.01135
-0.0182307 0.0413368 0.0042
0.0429615 0.0057954 -0.025
0.0248341 0.00419483 -0.0103
0.0252922 0.00419483 -0.0103
0.0283246 0.0041916 -0.0104
0.0183122 0.0326898 -0.0152
0.0328075 0.00374527 -0.0242
0.0353369 0.0037388 -0.0244
0.0443435 0.0352111 -0.0394667
-0.0162719 0.0196998 0.00489999
0.0422168 0.0293023 -0.0422
0.0217736 0.0422612 0.000499993
0.0358968 0.00374042 -0.02435
0.0368091 0.00375012 -0.02405
-0.0166705 0.0519525 0.0054
0.0803506 0.0337675 -0.04254
0.0374034 0.00375498 -0.0239
0.0389406 0.00375821 -0.0238
0.076833 0.0143415 -0.0551
0.0392494 0.00374851 -0.0241
0.062061 0.0457429 -0.03895
0.0395562 0.0037388 -0.0244
0.0573235 0.0162082 -0.0479
0.0397251 0.0037291 -0.0247
0.0403842 0.00383723 -0.025525
0.0408787 0.00383307 -0.02565
0.0406472 0.0298254 -0.03805
-0.0151068 0.00471712 -0.00405001
0.0416791 0.00384475 -0.0253
0.0678475 0.0111954 -0.0515222
0.0428228 0.0037388 -0.0244
0.0432814 0.00375498 -0.0239
0.0672153 0.0456933 -0.04285
0.0463302 0.00382613 -0.0217
0.0465135 0.00360297 -0.0286
0.0227321 0.023701 -0.0198
0.046907 0.00360297 -0.0286
0.0698883 0.0212372 -0.0543
0.0479563 0.00373413 -0.0286
0.0018905 0.00770837 -0.0128
0.050096 0.00372742 -0.0288
0.0504319 0.0037232 -0.028925
0.0527251 0.00357063 -0.0296
-0.0460188 0.0427396 -0.000100002
-0.0215791 0.00480386 -0.00155001
-0.00774964 0.0196922 -0.00670001
-0.0111582 0.0206623 -0.0034
-0.0207115 0.00479171 -0.0019
0.0555481 0.0273008 -0.047425
0.039872 0.0316484 -0.039
-0.0187195 0.0047813 -0.00220001
0.00135946 0.0301861 -0.0061
-0.0181933 0.00477089 -0.00250001
-0.0176688 0.00476049 -0.0028
-0.00216536 0.0442828 -0.0204
-0.0161263 0.00473447 -0.00355
0.0396002 0.018461 -0.0351
-0.0156157 0.00472579 -0.0038
0.0159154 0.0102635 -0.0108
0.0269654 0.00919903 -0.0194333
-0.0145889 0.00470497 -0.0044
0.0743598 0.0321325 -0.0444
0.0549374 0.00840313 -0.0419667
0.0468187 0.0441889 -0.0546
-0.00419171 0.0563118 0.00605
0.00831735 0.00769625 -0.013
-0.014238 0.00469456 -0.00470001
0.0842361 0.0346133 -0.0427
-0.0138886 0.00468415 -0.00500001
0.0662817 0.0456141 -0.0472
-0.0131939 0.00482157 -0.00560001
-0.0137516 0.0134444 -0.00320001
0.037624 0.0206841 -0.0351
-0.0126767 0.00480543 -0.00605
-0.00907976 0.004739 -0.0079
0.0328137 0.0326654 -0.030975
0.0118173 0.0438697 -0.045425
-0.012771 0.045317 0.00389999
0.0325024 0.0281739 -0.0313
-0.00763628 0.0047121 -0.00865
0.0153278 0.0162365 -0.008
-0.00627276 0.0046434 -0.00913334
0.0548707 0.0197881 -0.0473857
-0.00575624 0.00453842 -0.00920001
0.0274426 0.0372215 -0.0244
-0.00419685 0.0046709 -0.0098
0.071318 0.0130529 -0.0561
0.070853 0.0336922 -0.0429333
0.0256536 0.0206535 -0.0257
-0.0419644 0.0444901 -0.00670001
0.0211038 0.00448638 -0.0107
0.0214248 0.0046422 -0.0106
0.050483 0.0320814 -0.0418
0.0219073 0.00464758 -0.01045
0.050423 0.0445277 -0.0458
0.0223908 0.00465296 -0.0103
0.0232891 0.00449678 -0.0104
0.0743176 0.0098004 -0.049
0.0237834 0.00465655 -0.0102
0.0638806 0.0472704 -0.053
-0.0402544 0.0456494 -0.0427
0.0329474 0.027195 -0.0318
0.0342628 0.0052382 -0.02435
0.0164438 0.00472046 -0.0126
-0.0193852 0.043931 0.0027
0.069201 0.0460302 -0.0468
0.0259031 0.00450025 -0.0103
0.0163717 0.0102635 -0.0108
0.00586348 0.0437353 -0.06148
0.0525145 0.0306451 -0.0472
0.0258611 0.00433032 -0.0206
-0.0064027 0.0386125 -0.0019
-0.0100762 0.0431163 -0.0603
0.0263665 0.00433641 -0.0204333
0.0653582 0.0372108 -0.0408667
0.0272884 0.00429421 -0.0203
0.0280387 0.00411858 -0.0213
0.0283283 0.00418568 -0.0220333
0.0289558 0.00424814 -0.0228667
-0.00858131 0.0392338 -0.000849999
0.0294342 0.00419822 -0.022975
0.0160438 0.00624 -0.0122
0.0593355 0.0267053 -0.047975
0.0299534 0.00419377 -0.0231
0.0328984 0.00410886 -0.0242
0.0451037 0.0239275 -0.0439
0.0363524 0.00401796 -0.0242
0.0388676 0.024644 -0.0374667
0.0367774 0.0041561 -0.02415
-0.0371949 0.043259 0.0027
0.0373955 0.00416414 -0.023925
0.0388372 0.00417224 -0.0237
0.0395904 0.00401449 -0.0243
-0.0080212 0.0161541 -0.00740001
0.0464302 0.0042404 -0.0218
-0.0210824 0.0052911 -0.0016
0.0587307 0.0450196 -0.0575
-0.0200611 0.00511691 -0.0019
-0.0251801 0.0430726 -0.00910001
-0.0171623 0.00523845 -0.00297501
-0.00110917 0.0127003 -0.0123
-0.0156271 0.0052107 -0.0037
-0.0151124 0.00519923 -0.00400001
-0.014238 0.00517247 -0.00470001
0.0582518 0.0137031 -0.047975
-0.00119169 0.038684 -0.0028
-0.0138886 0.005161 -0.00500001
0.00230366 0.0301635 -0.0062
-0.00376379 0.00611335 -0.0106333
-0.0135405 0.00514954 -0.0053
0.0722568 0.0313748 -0.04465
-0.0106693 0.0056905 -0.00747501
-0.00605962 0.00484273 -0.00930001
-0.0142591 0.00821135 -0.0045
-0.00264341 0.00478715 -0.0108
-0.00233555 0.00477974 -0.011
0.0525308 0.0123499 -0.043
0.0688756 0.0328765 -0.0442
-0.0015689 0.00475751 -0.0116
0.00159722 0.00473157 -0.0123
0.00294689 0.00472601 -0.01245
0.00488966 0.00471675 -0.0127
0.00578897 0.00471675 -0.0127
0.0639417 0.0213748 -0.053
0.00608395 0.00471304 -0.0128
0.0068193 0.00470378 -0.01305
-0.00416784 0.0133162 -0.0107
0.0639406 0.0212145 -0.05245
-0.0211887 0.0436709 0.0024
0.0297801 0.0162723 -0.02985
0.0142676 0.0445607 -0.0443
-0.0525786 0.0462329 -0.0226
0.00542739 0.0182019 -0.0106
0.00725918 0.00469822 -0.0132
-0.00705616 0.0343057 -0.00393334
0.00755181 0.00469452 -0.0133
0.00828127 0.00483414 -0.01355
0.0438789 0.0307879 -0.0426
-0.00461925 0.00767448 -0.01085
-0.00827526 0.0342223 -0.00320001
0.00941159 0.00477884 -0.0137
-0.00578045 0.0167751 -0.00865
0.0117288 0.00469452 -0.0133
-0.00316394 0.0287504 -0.00593334
0.0143043 0.00470748 -0.01295
0.0149085 0.00470934 -0.0129
0.0173641 0.00472601 -0.01245
0.0178356 0.00473157 -0.0123
0.0138333 0.0380846 0.00219999
0.0622475 0.00637035 -0.0375333
0.01943 0.0047538 -0.0117
0.0616728 0.0453231 -0.0469
0.0250902 0.00442033 -0.0207
0.0322528 0.0297879 -0.0307
-0.0399841 0.0438858 -0.0428
0.0253924 0.00442404 -0.0206
0.0268656 0.00443515 -0.0203
0.0282228 0.00438328 -0.0217
0.0320446 0.00429806 -0.024
0.0408966 0.00423877 -0.0256
0.0413368 0.00424248 -0.0255
0.0416428 0.00424619 -0.0254
0.0424034 0.00426842 -0.0248
-0.0412638 0.0439922 0.00399999
0.00588794 0.0427063 -0.0614
-0.0440586 0.0425586 -0.0232
-0.0215526 0.0432151 -0.0096
0.0463515 0.00423202 -0.0293
0.0466079 0.0041128 -0.029
0.0029075 0.0270828 -0.00740001
0.01682 0.00522865 -0.0124
-0.0176217 0.0432532 -0.04895
0.0474327 0.00421127 -0.0287
0.0825022 0.027948 -0.0433
0.0143028 0.0434323 -0.0433
0.0495621 0.0311 -0.0427
0.0723349 0.0121423 -0.0551
0.0483057 0.00421884 -0.0285
0.0353208 0.0175937 -0.0286
0.0497701 0.00425687 -0.02865
0.0500735 0.00424917 -0.02885
-0.0129721 0.0201779 -0.00120001
0.0517911 0.00418224 -0.0294667
0.061842 0.00985658 -0.0474667
-0.0190855 0.00625511 -0.0019
0.0345028 0.0231905 -0.0330333
0.00361457 0.0325092 -0.0043
-0.0200902 0.00544999 -0.0017
-0.0116516 0.00524311 -0.00695
0.0338143 0.0171264 -0.02765
0.0716871 0.0467702 -0.0393
-0.0111605 0.00523326 -0.0072
-0.0101915 0.00521749 -0.00760001
-0.00184053 0.0456967 -0.0026
-0.0098723 0.00521355 -0.00770001
-0.00955353 0.00520961 -0.0078
-0.00810343 0.00517809 -0.00860001
0.0426389 0.0411917 -0.0298
-0.00562809 0.0464092 -0.00095
0.0168292 0.00625221 -0.01195
-0.00761884 0.00531853 -0.00895
0.0363562 0.00764267 -0.02505
0.0535534 0.00638954 -0.0303
0.0178127 0.0435351 -0.02845
-0.00720098 0.00526244 -0.00906667
-0.00620643 0.00529818 -0.00945
-0.0046541 0.00528096 -0.009875
0.0517024 0.00787647 -0.0346
-0.0145244 0.0100885 -0.00500001
0.00085802 0.0182301 -0.0104
0.0202567 0.0442691 -0.03085
-0.0041888 0.0052739 -0.01005
-0.00233284 0.00522925 -0.01115
0.0284026 0.0441344 -0.0363
0.0654115 0.0386919 -0.04062
-0.00161926 0.00516065 -0.0116
-5.67708e-05 0.00518768 -0.012175
0.0399897 0.0350716 -0.0385
0.0715827 0.00896379 -0.0442
-0.0156329 0.00681795 -0.00365
0.00129752 0.00503622 -0.0122
0.00294579 0.00517452 -0.0125
0.0258093 0.0183024 -0.0244
0.0499341 0.0442705 -0.0495
0.00339615 0.00517452 -0.0125
0.0153725 0.0418561 0.0025
0.00384572 0.00517348 -0.012525
0.0192857 0.0457178 -0.044
0.0453016 0.0249649 -0.0425
0.0188764 0.044234 -0.0604833
0.0044435 0.00517046 -0.0126
0.0558314 0.0222134 -0.048
0.00533931 0.0051664 -0.0127
0.00598251 0.00521087 -0.0128333
0.0705925 0.0138584 -0.0568
0.00637847 0.00515829 -0.0129
-0.000825554 0.0189567 -0.0096
0.0343225 0.0341744 -0.031075
0.0120366 0.0051461 -0.0132
0.0134014 0.00515423 -0.013
0.0138609 0.00515829 -0.0129
0.0143098 0.00515828 -0.0129
0.0149114 0.00515933 -0.012875
0.0655675 0.0453388 -0.0482
0.0498956 0.023712 -0.046425
0.0153695 0.00501258 -0.0128
0.0448529 0.018232 -0.041975
0.0456874 0.0230872 -0.0441
0.0358087 0.0441495 -0.0466
0.0222274 0.0446064 -0.0349
0.0158343 0.00516744 -0.012675
0.000702596 0.0432261 -0.0499
0.0164022 0.00512317 -0.0125333
-0.0436677 0.0429348 -0.01315
0.0173298 0.0051312 -0.0123333
0.0183117 0.00518976 -0.012125
0.0403689 0.0272585 -0.03946
0.0194073 0.00520084 -0.01185
0.0141713 0.0439518 -0.0128
0.0198987 0.00521099 -0.0116
0.0118325 0.0357657 0.00229999
0.0204156 0.00507563 -0.0112
0.020895 0.00523331 -0.01105
0.00533512 0.00591117 -0.0128
0.00138078 0.0332215 -0.00400001
0.022798 0.0052129 -0.0103
0.000395306 0.0142374 -0.012
0.0120366 0.00574328 -0.0132
0.0658278 0.00832262 -0.0503
-0.0262386 0.0441513 -0.0608
0.023325 0.00526786 -0.0102
-0.0137731 0.0276643 0.00029999
0.0251113 0.0047052 -0.0206
0.0618912 0.0207624 -0.05115
0.0264097 0.00471111 -0.02045
0.0416103 0.0111432 -0.0318
0.0565906 0.0436154 -0.0352
-0.0270806 0.042749 -0.02635
0.0430298 0.00675997 -0.02845
0.026888 0.00472096 -0.0202
0.0339207 0.0422906 -0.0244333
0.0272884 0.00471702 -0.0203
0.00159847 0.011958 -0.0122
0.0282228 0.00466185 -0.0217
0.028393 0.00478282 -0.02215
0.0389784 0.00860134 -0.0249
0.062854 0.0477109 -0.03805
0.0307661 0.00474224 -0.02315
0.0311655 0.00460274 -0.0232
0.0249697 0.0439713 -0.0421
0.0319286 0.00471081 -0.023925
0.0355358 0.0239865 -0.0347
0.0329153 0.00469562 -0.0243
0.0199327 0.0253203 -0.01235
-0.0156271 0.0101856 -0.0037
0.0348578 0.00473972 -0.0243333
0.0272352 0.0438683 -0.0397
0.0353521 0.00469359 -0.02435
0.036321 0.00469562 -0.0243
0.00784133 0.0436873 -0.0613
0.0367774 0.00470171 -0.02415
0.0872613 0.0249808 -0.0442
0.0378461 0.00471592 -0.0238
0.062076 0.00636602 -0.03695
0.038306 0.004722 -0.02365
0.070899 0.0159943 -0.0569
0.039248 0.00471997 -0.0237
0.00440842 0.0141687 -0.0121667
0.0394709 0.00471395 -0.02385
0.0397498 0.00474923 -0.0241
0.0402985 0.00466727 -0.025
0.0678789 0.0122137 -0.0525429
0.0409324 0.00464692 -0.0255
0.0443617 0.0381551 -0.03695
-0.0205796 0.0426492 0.0052
-0.00277844 0.0411673 -0.0042
0.0416428 0.00465098 -0.0254
0.0427672 0.00468542 -0.02455
0.0432255 0.00470571 -0.02405
0.0746712 0.0130182 -0.0546
0.0448527 0.00476253 -0.02265
0.0458959 0.00478491 -0.0221
0.028807 0.0442181 -0.03345
0.0455347 0.0043466 -0.0297
0.0456699 0.00433477 -0.03
0.0643426 0.0122108 -0.0507
0.0471731 0.00437812 -0.0289
0.0509134 0.00436236 -0.0293
0.0534069 0.00431113 -0.0306
-0.0197645 0.00577567 -0.0017
-0.0190717 0.00576314 -0.002
0.052971 0.0217985 -0.0478
-0.0176688 0.00572973 -0.0028
-0.0111311 0.00880632 -0.00755001
-0.0166509 0.00571302 -0.00320001
0.0718315 0.0396097 -0.0409
-0.0138989 0.00580121 -0.00490001
-0.0135405 0.00562532 -0.0053
-0.00351114 0.0447528 -0.000500008
-0.0121487 0.00572589 -0.00665001
-0.0111479 0.00569583 -0.00735
0.0623149 0.00630424 -0.03795
-0.00825489 0.00564001 -0.00865
0.0294242 0.00770583 -0.0241
-0.00698294 0.00545827 -0.00930001
0.0198521 0.0065563 -0.0119
0.00294695 0.0102827 -0.01245
-0.014403 0.0266161 0
-0.00511665 0.00543739 -0.0098
-0.00356715 0.00541234 -0.0104
0.0478681 0.0161784 -0.04204
0.0367845 0.0322085 -0.0325
0.00940342 0.0267276 -0.00605
-0.0014154 0.00535387 -0.0118
0.000995799 0.00533299 -0.0123
0.00871762 0.00527452 -0.0137
0.0035906 0.0313413 -0.0052
-0.0121125 0.0388695 0.000199988
0.0413039 0.0421914 -0.0299
0.029829 0.0366419 -0.0262
0.0090079 0.00527035 -0.0138
0.0108081 0.0052787 -0.0136
0.044878 0.00516514 -0.0316
0.0203839 0.00537058 -0.0114
0.0230193 0.00542069 -0.0102
0.0163907 0.0422213 0.0026
0.0348244 0.0181538 -0.02865
0.0258412 0.00513234 -0.020475
0.0636941 0.0152102 -0.0516
0.0272884 0.00499889 -0.0203
0.0281096 0.00496966 -0.021
0.0286179 0.0132434 -0.0246
0.030988 0.00487152 -0.02335
0.0332952 0.00482767 -0.0244
0.0864251 0.0336549 -0.0426
0.0338689 0.00483185 -0.0243
-0.0143045 0.0428026 0.00229999
0.0312519 0.0244052 -0.0306
0.0341709 0.00483602 -0.0242
0.0203859 0.00922539 -0.010425
0.0563894 0.0152526 -0.0471167
0.0344138 0.00483185 -0.0243
0.0365761 0.0145288 -0.0293
0.0838047 0.0246875 -0.044025
0.0453283 0.00458545 -0.0302
0.00881963 0.0435697 -0.0435
0.0455454 0.00458128 -0.0303
0.0784346 0.0122754 -0.0536
0.0273236 0.0445442 -0.0485
0.0468517 0.00475117 -0.02935
0.0473191 0.00472401 -0.0289667
0.0333173 0.0301709 -0.0308667
-0.00557018 0.00573738 -0.00995
0.0310519 0.0214334 -0.0313
-0.0351214 0.0428055 -0.02365
0.0479348 0.00465018 -0.02865
0.0484082 0.00482422 -0.0286667
0.0678961 0.017281 -0.0549
0.0588624 0.0188043 -0.0496
0.030371 0.0266131 -0.030525
0.0498976 0.00476829 -0.02895
0.0506985 0.00462721 -0.0292
0.0508112 0.00479535 -0.0293333
-0.019463 0.0407654 0.00579999
0.0329524 0.0187704 -0.02965
0.0513728 0.00474765 -0.0294333
0.0524296 0.0047373 -0.029675
0.0251179 0.024698 -0.0269
0.0533389 0.00470295 -0.030475
-0.0146158 0.00615325 -0.00415001
-0.0212049 0.0430872 -0.06205
-0.00414124 0.0433216 -0.00140001
-0.0135506 0.00594693 -0.0052
-0.0101761 0.00583222 -0.0078
-0.00889714 0.00581017 -0.00830001
0.0444357 0.0277478 -0.04446
-0.000648353 0.0441178 -0.06106
0.0156313 0.0287102 -0.0026
-0.00665984 0.00575281 -0.0096
0.0397473 0.0312105 -0.0381
-0.00418074 0.00572193 -0.0103
0.053746 0.044977 -0.0409
-0.00371836 0.00571532 -0.01045
-0.0125542 0.01841 -0.00220001
-0.00325441 0.00570429 -0.0107
-0.00294537 0.00569546 -0.0109
-0.00415319 0.0457379 -0.001
0.0394879 0.00526318 -0.0238
0.0572164 0.0296465 -0.0437
-0.0131946 0.0427311 -0.0547
-0.0166387 0.00635265 -0.00330001
0.00792749 0.0197283 -0.009575
-0.00263625 0.00583608 -0.01115
0.0598083 0.0404238 -0.0332
-0.00171863 0.00581123 -0.0117
0.0857899 0.0256892 -0.0428
0.0705014 0.045466 -0.0393
-0.00141485 0.00580438 -0.01185
-0.000659137 0.00579311 -0.0121
0.0353478 0.0151759 -0.0274
0.0113437 0.0449494 -0.0205
0.000845444 0.00578406 -0.0123
0.00144567 0.00577947 -0.0124
-0.00918355 0.0451981 -0.00165
0.029115 0.00704782 -0.0237
0.0018957 0.0057772 -0.01245
0.0235812 0.0149265 -0.0198
0.00294403 0.00577157 -0.012575
0.00339482 0.00577267 -0.01255
0.00444085 0.00576704 -0.012675
0.0299234 0.0230267 -0.0298
0.0433713 0.0163224 -0.0384167
-0.0490954 0.0425402 -0.00390001
0.00488966 0.00576593 -0.0127
0.024663 0.0334204 -0.0253
-0.00794731 0.0337144 -0.00330001
-0.00268944 0.0226691 -0.00855
0.0444054 0.0302351 -0.04345
0.00593066 0.00575798 -0.012875
-0.0131153 0.0112422 -0.0064
0.00637094 0.00575002 -0.01305
0.00783778 0.0057297 -0.0135
0.0558613 0.0238102 -0.04752
0.00827472 0.00572291 -0.01365
0.00945366 0.00571611 -0.0138
0.0112724 0.00573423 -0.0134
-0.0133469 0.026483 -0.000699997
-0.0030807 0.0101999 -0.0116
0.0123352 0.00574328 -0.0132
0.0438908 0.0348492 -0.0396
0.0138609 0.00575688 -0.0129
0.0497485 0.0105459 -0.0376
0.0498595 0.0132687 -0.0398
0.0147704 0.00561164 -0.0128
0.036376 0.0106587 -0.0275
0.0237835 0.006032 -0.0102
0.0149858 0.00581745 -0.0126667
0.0167831 0.0056337 -0.0123
0.0178705 0.00579543 -0.01205
0.000928199 0.0441518 0.000199988
-0.0044654 0.0072155 -0.0109
0.0234059 0.0192991 -0.0230333
0.019709 0.00580438 -0.01185
0.0213421 0.00583829 -0.0111
0.0230193 0.00572634 -0.0102
0.00551347 0.0439603 -0.0573
-0.042642 0.0437607 -0.00605
0.023325 0.00572634 -0.0102
0.028277 0.0434082 -0.0281
0.024242 0.00572634 -0.0102
0.0266059 0.00528518 -0.0202
0.0673688 0.02717 -0.0465
0.026888 0.00528518 -0.0202
-0.00316487 0.0434138 -0.0505333
0.0733376 0.0100941 -0.0502
0.032954 0.0432641 -0.02605
0.0313193 0.00526991 -0.02365
0.0328937 0.00916495 -0.02598
0.0353369 0.005236 -0.0244
0.0137843 0.0447257 -0.0281
0.0449999 0.0173892 -0.03985
0.0364494 0.00523936 -0.024325
0.00137581 0.0446356 -0.0601
0.00177694 0.0197941 -0.01015
0.0368978 0.00510871 -0.0242
0.0363339 0.0221384 -0.03345
0.0401006 0.00509989 -0.0244
0.0404341 0.00520882 -0.025
0.00491359 0.0407654 0.00579999
-0.0071219 0.00621452 -0.009575
-0.0143262 0.0431163 -0.0527
0.0133774 0.0371655 0.00209999
0.0418349 0.00514719 -0.0253667
0.0258128 0.0429905 -0.0285
0.0423113 0.0052065 -0.02505
0.0433435 0.00511312 -0.0241
0.00173051 0.0429576 -0.0566
0.0434471 0.0147505 -0.03935
0.0439415 0.00513518 -0.0236
0.0868879 0.0322081 -0.0424667
-0.0139092 0.00628294 -0.00480001
0.0608299 0.0452582 -0.0368
0.0457458 0.0227204 -0.0435
-0.0132037 0.00625041 -0.0055
-0.0116384 0.00617606 -0.0071
0.0693934 0.0123537 -0.053975
0.0218981 0.00824757 -0.0114
-0.0401727 0.0431792 0.00939999
0.0354051 0.0387253 -0.0309
0.0143578 0.00667711 -0.012475
-0.0101723 0.00629674 -0.00785
-0.00968908 0.00628599 -0.008075
-0.00904533 0.0062706 -0.00840001
-0.00808185 0.00624433 -0.00895
0.00939414 0.0162308 -0.010525
-0.00556265 0.00618831 -0.010125
0.0122322 0.0438986 -0.0407
0.0328407 0.0437048 -0.0384333
0.0365613 0.0436066 -0.0309
0.0159019 0.0202591 -0.0071
-0.00463535 0.00617524 -0.0104
0.0537559 0.00588093 -0.03015
-0.0210935 0.0412687 0.00759999
0.0362839 0.00684261 -0.02485
0.0580602 0.0441494 -0.0374
0.0888338 0.027185 -0.042975
-0.00309503 0.00614665 -0.011
0.0431709 0.0211402 -0.0416
0.0228645 0.00611963 -0.0105
0.0243999 0.00572042 -0.01995
0.0307019 0.0162797 -0.0298
0.0259114 0.00571077 -0.02015
-0.027549 0.0430801 -0.0471667
0.0263018 0.00556264 -0.0203
0.0273397 0.00571444 -0.020075
-0.00809984 0.0241952 -0.0061
0.0368659 0.00537675 -0.0243
0.0434048 0.00537675 -0.0243
0.0418553 0.0251941 -0.04115
0.0437527 0.00538605 -0.0241
-0.00861312 0.0342848 -0.00295
0.0441396 0.00539999 -0.0238
0.0434873 0.00513656 -0.0322
0.0424892 0.0129129 -0.03795
0.0521942 0.0183066 -0.0466
0.043868 0.00500963 -0.0322
0.046878 0.00524602 -0.0299
0.00192137 0.0442148 0.000399992
0.0472657 0.00526032 -0.0296
0.0475675 0.00514904 -0.0292
0.0483287 0.00516066 -0.02895
0.0488736 0.00516298 -0.0289
0.0389367 0.029276 -0.03634
0.0493301 0.00515601 -0.02905
-0.00251191 0.0429446 -0.0402
-0.0352155 0.0432199 -0.0166
0.0498974 0.00531167 -0.0294333
0.0509235 0.00531012 -0.0294667
0.0518622 0.00520015 -0.0295
-0.0152022 0.0351817 0.00129999
0.0523682 0.00528453 -0.02964
0.0827758 0.0247293 -0.0443
0.053412 0.00522593 -0.030325
-0.0202209 0.00679662 -0.000799999
-0.0187331 0.00673315 -0.00210001
-0.0181933 0.00671362 -0.00250001
0.0264797 0.020652 -0.0279
0.0207875 0.044091 -0.04385
-0.0171467 0.00668432 -0.00310001
-0.0166387 0.00667456 -0.00330001
-0.0161322 0.00666479 -0.0035
-0.0146212 0.0067955 -0.00410001
0.0138677 0.00869831 -0.01145
-0.0140945 0.00677301 -0.00455001
0.0112917 0.0252988 -0.0061
0.0609314 0.0202331 -0.0509143
-0.0135606 0.0067455 -0.0051
0.0186177 0.0207908 -0.00670001
0.0047782 0.043562 -0.0425
0.054127 0.0310526 -0.0463
0.0309599 0.0142312 -0.026475
-0.0105285 0.0427212 -0.0535
-0.0128486 0.0067055 -0.00590001
0.0563457 0.0340954 -0.04356
-0.0124955 0.0066855 -0.0063
0.0185213 0.041768 0.00219999
0.0546014 0.0406373 -0.0333
-0.00263318 0.00628395 -0.0113
-0.0105615 0.043029 -0.0284
0.0648123 0.0112556 -0.05038
-0.00217362 0.00626929 -0.0116
0.0608468 0.0446432 -0.0513
-0.00171863 0.00626441 -0.0117
-0.00665484 0.0242574 -0.00662501
9.3669e-05 0.00623512 -0.0123
0.000394379 0.00623512 -0.0123
0.0014446 0.00622535 -0.0125
0.00294117 0.00621559 -0.0127
-0.00450715 0.0411652 -0.0035
0.0281802 0.00815361 -0.0195
0.00339082 0.00621559 -0.0127
0.0203861 0.0433031 0.00119999
0.00444001 0.00621559 -0.0127
0.0544159 0.030331 -0.0458
0.00533093 0.00620582 -0.0129
0.0262406 0.0252319 -0.028075
0.00592713 0.00620338 -0.01295
0.0573221 0.0143648 -0.0472
0.00886984 0.00631802 -0.01365
0.0264617 0.0286297 -0.0307
0.0112286 0.00628412 -0.0133333
0.0134119 0.00620582 -0.0129
0.0138718 0.00621071 -0.0128
0.0149553 0.00622535 -0.0125
0.0517954 0.0162678 -0.046625
0.0303883 0.0359264 -0.0276
0.0157306 0.00623512 -0.0123
0.0163576 0.00624488 -0.0121
0.0101348 0.0151314 -0.0108
0.017439 0.00625465 -0.0119
0.0193997 0.00625465 -0.0119
-0.0312241 0.0423877 -0.03815
0.00804224 0.0182582 -0.0102
0.0198521 0.00625465 -0.0119
0.0203205 0.00625953 -0.0118
0.0214355 0.00627662 -0.01145
0.0288075 0.00587278 -0.0234667
0.0298445 0.00582409 -0.023525
0.0604767 0.0193768 -0.0503
0.0103941 0.0282678 -0.005475
0.0433293 0.0268158 -0.04092
0.0318167 0.00574661 -0.0241667
-0.0326657 0.043376 0.00649999
0.0322064 0.00564432 -0.0244
0.0333591 0.00563212 -0.02465
0.0473555 0.0444051 -0.0559667
0.0347875 0.00572677 -0.0245667
0.014227 0.00713725 -0.0123
0.0358347 0.00577287 -0.02455
0.0293127 0.0121858 -0.0256
0.0454489 0.0141984 -0.0399
0.0364179 0.00577915 -0.024425
0.0773998 0.0303304 -0.0441667
0.0371384 0.00578543 -0.0243
0.0374593 0.00579287 -0.02415
-0.0270776 0.0429465 -0.0026
0.0173286 0.00687401 -0.0116
0.0333611 0.0441423 -0.0543
-0.00262295 0.0092784 -0.0118
0.0383934 0.00581044 -0.0238
0.0336999 0.0262511 -0.03305
0.0022072 0.0433959 -0.0491
0.00839079 0.0433431 -0.0445
0.0388539 0.00581799 -0.02365
0.013784 0.0341986 0
0.039248 0.00581543 -0.0237
0.0324408 0.0200441 -0.0305
0.0199025 0.0438945 -0.00755001
0.0402355 0.00572831 -0.0245333
-0.0421342 0.0438394 0.0035
0.0418943 0.00572787 -0.02545
0.0425635 0.00561014 -0.0251
0.0439117 0.00564432 -0.0244
-0.0220284 0.0432602 -0.0324
-0.0416002 0.0437017 0.00759999
0.0443199 0.00564432 -0.0244
0.0159229 0.0227031 -0.00560001
0.0528652 0.0442871 -0.053425
0.0457681 0.00532207 -0.031
0.0463862 0.00534893 -0.03045
0.0644265 0.045681 -0.0436
0.0478292 0.0053953 -0.0295
0.0588612 0.0184432 -0.0497
0.0484152 0.00540263 -0.02935
0.0529976 0.0442284 -0.0525333
0.0219249 0.0436585 -0.04855
0.00508746 0.0411126 0.00109999
0.0489361 0.00540263 -0.02935
0.0494126 0.00539775 -0.02945
0.00547887 0.0299823 -0.00560001
-0.00927883 0.0337131 -0.00265
-0.00344066 0.0382211 -0.00330001
0.0531334 0.00536601 -0.0301
-0.0181349 0.00714355 -0.00253334
0.0743235 0.03922 -0.041
-0.0359807 0.0435404 -0.000699997
-0.0161322 0.00714694 -0.0035
0.036599 0.0440067 -0.0366
-0.0111353 0.0067815 -0.00750001
0.0493961 0.00778679 -0.0358
-0.0108069 0.00677126 -0.00770001
0.0138139 0.0397029 0.00199999
-0.00887688 0.0067252 -0.0086
-0.00855441 0.00671496 -0.0088
0.0123024 0.0142627 -0.0104
0.0799465 0.0141387 -0.0539
-0.00759268 0.00668425 -0.00940001
-0.00727119 0.00682488 -0.00965
0.0203484 0.0442804 -0.0393
-0.00664196 0.00680917 -0.00995
-0.0055509 0.00678561 -0.0104
-0.00324308 0.00674634 -0.01115
-0.00293624 0.00673854 -0.0113
-0.0161352 0.00779126 -0.003475
-0.00263011 0.00673063 -0.01145
-0.00156518 0.00670707 -0.0119
-5.6686e-05 0.00668619 -0.0123
0.000844256 0.00667699 -0.012475
0.0582354 0.014593 -0.0476
0.0124249 0.0440707 -0.0463
0.00189273 0.0066678 -0.01265
0.0273062 0.0089974 -0.0196
0.0048839 0.00665733 -0.01285
0.00181531 0.0272492 -0.00735001
0.00533093 0.00665477 -0.0129
0.00636843 0.00664429 -0.0131
-0.00239348 0.0257558 -0.0078
0.0638058 0.0343517 -0.0417
0.0138936 0.00667059 -0.0126
0.00528804 0.0436082 -0.054
0.0151292 0.00653583 -0.0123
0.0163896 0.00670981 -0.01185
0.0177822 0.00672296 -0.0116
0.0183869 0.00672296 -0.0116
-0.0137093 0.0267141 -0.000350006
0.0207733 0.00656142 -0.0118
0.0401874 0.0177752 -0.0355
-0.0106633 0.0433248 -0.05795
0.0305813 0.0444204 -0.0411
0.021864 0.00672272 -0.0116
0.0659783 0.0315497 -0.0448
0.0494708 0.00563504 -0.0299
0.0233151 0.00659725 -0.0111
0.0453873 0.0382813 -0.0371
0.0239437 0.00617244 -0.0194
0.0249169 0.00630938 -0.0195
0.0319618 0.00592166 -0.0243
0.0288451 0.0326686 -0.027425
0.0341512 0.0442261 -0.0568
0.0409907 0.0308318 -0.03985
-0.0274355 0.0616255 0.0009
0.0329087 0.00589606 -0.0248
0.0319002 0.0441985 -0.0281
0.0333157 0.00589606 -0.0248
0.0344307 0.00590118 -0.0247
0.0433752 0.00588071 -0.0251
0.0434774 0.00567415 -0.0324333
0.0442934 0.00563378 -0.0324
0.0452838 0.00566251 -0.03185
0.00951791 0.0445874 -0.0222
0.0456001 0.00555827 -0.0314
0.0158769 0.0147702 -0.0086
-0.00262286 0.0327474 -0.00397501
0.0459825 0.00557362 -0.0311
0.0469021 0.00560689 -0.03045
0.0531356 0.0431218 -0.0352
0.0474399 0.0056248 -0.0301
0.0515147 0.00728073 -0.0324
0.0478935 0.00563248 -0.02995
0.0489523 0.00563504 -0.0299
-0.00947137 0.042171 0.000199988
0.0308068 0.0446094 -0.0590667
0.0214139 0.0141298 -0.0088
0.0498597 0.00563504 -0.0299
0.0683853 0.0352391 -0.042975
0.0503475 0.00571782 -0.0299667
0.000750064 0.0408001 -0.00220001
-0.00809847 0.0422283 -0.000699997
0.0508593 0.00564528 -0.0297
0.0528651 0.00576729 -0.02985
0.0555645 0.00736831 -0.0414
0.058407 0.0451585 -0.03785
0.0452246 0.0246205 -0.0434
0.00287794 0.0459657 -0.00130001
0.0533694 0.00573153 -0.03004
0.0141805 0.0251966 -0.00410001
0.0542293 0.00560433 -0.0305
0.05576 0.00534331 -0.0356
0.0649974 0.0468703 -0.0526
0.00887411 0.0435779 -0.051975
0.0626502 0.0053126 -0.0362
0.072477 0.0342549 -0.04285
0.062834 0.00530748 -0.0363
0.0146928 0.0440212 -0.0184
-0.0211164 0.00753786 0.000799999
-0.0205825 0.0076899 0.000549995
-0.0130936 0.0338932 0.000100002
0.0273835 0.0291751 -0.0301
-0.0201795 0.00766254 5.0001e-05
-0.0195513 0.00744685 -0.0009
0.0530949 0.0449883 -0.0572
-0.0146212 0.00727553 -0.00410001
0.0257525 0.031113 -0.0228
-0.0140945 0.00725144 -0.00455001
-0.0132037 0.00720058 -0.0055
-0.0128486 0.00717917 -0.00590001
-0.0117859 0.00726593 -0.0072
0.0563678 0.0337634 -0.0436
0.0668462 0.0172946 -0.0548333
-0.0105859 0.00728134 -0.00786667
-0.00919678 0.00719748 -0.00845001
0.0232735 0.0301686 -0.024825
0.0834267 0.0291937 -0.0414
-0.00758977 0.00714277 -0.00945001
0.0554016 0.0137217 -0.04785
-0.0151088 0.043149 -0.0505
0.00338816 0.00680977 -0.0128
-0.0376696 0.0429432 -0.00465001
0.00755181 0.006783 -0.0133
0.0354287 0.0236258 -0.03465
0.00829115 0.00677765 -0.0134
0.00888394 0.00677497 -0.01345
0.00978175 0.00677765 -0.0134
0.0123702 0.0222893 -0.00805
0.0400249 0.0285749 -0.0378
0.0103821 0.00678033 -0.01335
0.0357214 0.0282245 -0.03415
0.0719047 0.0105493 -0.0517
-0.045207 0.0431937 0.0036
0.0108423 0.00678836 -0.0132
-0.0411453 0.0423094 -0.0420333
0.0528751 0.00686841 -0.0309
0.0203363 0.00686866 -0.0117
0.0138956 0.0439167 -0.0523333
0.060083 0.0119039 -0.0493
0.0229401 0.00687937 -0.0115
0.0233576 0.00686866 -0.0117
-0.00118908 0.0352145 -0.00310001
0.0504594 0.0224354 -0.04635
0.00832134 0.0238157 -0.0082
0.0240231 0.00647785 -0.019
0.0244201 0.00646982 -0.01915
0.0619261 0.0202507 -0.0511
-0.0246027 0.042718 -0.056875
0.0719311 0.0114696 -0.05415
0.0274196 0.00647249 -0.0191
0.0813967 0.0313062 -0.0425333
0.0277272 0.00647785 -0.019
0.0227492 0.0442319 -0.0299833
0.00686878 0.0437701 -0.0175
0.0162456 0.042953 0.0028
0.0304581 0.00622088 -0.0238
0.0322226 0.00626498 -0.0246667
0.0474035 0.036088 -0.039
0.0333222 0.00625047 -0.0249333
0.0343709 0.00629739 -0.0249
0.0164932 0.0272365 -0.0035
-0.0237342 0.0429623 -0.03735
0.0349784 0.00634633 -0.0248333
0.0369142 0.00636837 -0.0244333
0.0508299 0.0185556 -0.046175
0.0374431 0.0063358 -0.0242
0.0538223 0.0122126 -0.0434833
0.0378503 0.00629757 -0.0240667
-0.001728 0.0361631 -0.00296667
0.0388706 0.00623158 -0.0236
0.039248 0.00622623 -0.0237
0.0210338 0.0299281 -0.0198
0.0394539 0.00635211 -0.0239
0.0397383 0.00629393 -0.0241333
0.0399752 0.00636472 -0.0245
0.0193737 0.0206101 -0.0213
-0.00493566 0.027287 -0.0064
0.0408787 0.00625647 -0.02565
0.0660334 0.014967 -0.0538
0.0424758 0.00611916 -0.0257
0.0428492 0.0152304 -0.03852
0.0428795 0.00611916 -0.0257
0.0484495 0.00869892 -0.03805
0.0429202 0.00623988 -0.02595
-0.00663721 0.042193 -0.00153334
0.0436485 0.00607633 -0.0265
0.0374062 0.0391702 -0.0318
0.0543239 0.00719226 -0.035525
0.0457714 0.00580329 -0.0316
0.0468806 0.00584612 -0.0308
-0.00807564 0.0197218 -0.00650001
0.00626806 0.0437453 -0.0151
0.0489036 0.00587289 -0.0303
-0.00909981 0.0248155 -0.0053
0.0114916 0.0467764 -0.0018
0.0501952 0.00587289 -0.0303
0.052296 0.0237614 -0.0472
-0.0127519 0.0530861 0.00759999
-0.0195934 0.00779117 -0.00060001
-0.0275111 0.0423192 -0.000400007
0.0208543 0.0296508 -0.0192
-0.0188146 0.00774087 -0.00150001
-0.0176559 0.00766262 -0.0029
-0.0171499 0.00781409 -0.00307501
0.0434679 0.0208289 -0.041975
0.0273863 0.0439415 -0.0577
-0.0166387 0.00764026 -0.00330001
0.0281762 0.00970341 -0.02305
-0.0135506 0.00769279 -0.0052
0.0148474 0.0262864 -0.00286667
0.0214028 0.0438233 -0.05546
-0.0128391 0.00764713 -0.006
-0.0121351 0.00744465 -0.00680001
-0.00790626 0.00730492 -0.00930001
0.0853485 0.0252155 -0.0433
-0.00632355 0.00725462 -0.0102
0.00443653 0.00725907 -0.0128
0.0462708 0.0444644 -0.0599
0.0269148 0.0437149 -0.03095
-0.0047768 0.00722667 -0.0107
-0.0147617 0.042441 -0.046
-0.00262705 0.00732744 -0.0116
0.0292678 0.0146551 -0.0256
0.0578053 0.0138602 -0.04765
-0.0131398 0.0429144 -0.0605
0.0659307 0.0471895 -0.0521333
-0.00211928 0.00736451 -0.0118333
0.0678589 0.0247637 -0.05158
-0.00156429 0.00730612 -0.011975
0.0228136 0.0107448 -0.0105
0.0664131 0.010281 -0.0504125
0.0639255 0.0197461 -0.05195
0.0464022 0.0253432 -0.04504
-0.0181801 0.0402062 0.00379999
-0.00111091 0.00729902 -0.0121
-5.67005e-05 0.00728184 -0.0124
-0.00813008 0.0268174 -0.00560001
0.000393761 0.00727619 -0.0125
0.00144233 0.00726478 -0.0127
0.0484924 0.020677 -0.0448
0.0843649 0.025213 -0.0436
0.00592952 0.00725336 -0.0129
0.00681798 0.00724341 -0.013075
0.0074114 0.00723915 -0.01315
0.0179265 0.0437505 -0.0207
0.0143384 0.00901153 -0.0113
0.00785946 0.00723915 -0.01315
0.0499189 0.0152722 -0.04245
0.00825885 0.00728989 -0.0131333
0.00889441 0.00708136 -0.0133
0.066899 0.0282321 -0.0454
-0.0286658 0.0428125 -0.04094
0.0504284 0.0357628 -0.040075
0.00460018 0.0323794 -0.0035
0.00339943 0.0450779 0
0.00985212 0.00728989 -0.0131333
0.0113102 0.00724917 -0.012975
0.0123741 0.0071093 -0.0128
0.00490733 0.0244365 -0.0082
0.0208165 0.0228234 -0.0169
0.0128436 0.0072706 -0.0126
-0.0104687 0.0252152 -0.00400001
0.0137705 0.00728481 -0.01235
0.0144501 0.00734929 -0.0121
-0.0115622 0.0440384 -0.03595
0.0313212 0.00912356 -0.02515
0.0148633 0.00730484 -0.012
-0.0424303 0.0433298 -0.0146
0.0153274 0.0071596 -0.0119
0.021311 0.0444243 -0.03605
0.0157922 0.00716519 -0.0118
0.0159617 0.00732476 -0.01165
0.0163292 0.00738183 -0.0115333
0.0509134 0.0439854 -0.0293
0.0199141 0.00718196 -0.0115
-0.013119 0.0453485 0.00399999
0.0257534 0.0192135 -0.02465
0.0214146 0.00732907 -0.011575
0.0218555 0.00732476 -0.01165
0.0112955 0.0440259 -0.000200003
0.0222556 0.00727335 -0.0116667
0.0217904 0.0439276 -0.00745001
0.0229311 0.00717916 -0.01155
0.023371 0.00727922 -0.01245
0.023719 0.00709813 -0.013
0.0240628 0.00677396 -0.0188
0.0247353 0.00676278 -0.019
-0.00580465 0.0187089 -0.0081
0.025843 0.00675439 -0.01915
0.0268946 0.00676837 -0.0189
0.0724155 0.0202577 -0.054175
0.0239 0.0448594 -0.00700001
0.0272247 0.00677955 -0.0187
0.0529223 0.0121533 -0.04305
-0.00113861 0.0429811 -0.055
0.0297625 0.00659324 -0.0236667
0.0160582 0.0199461 -0.0071
0.0303408 0.0066711 -0.0239
0.0353502 0.00643861 -0.0248
0.0617189 0.0290837 -0.0448
0.00884056 0.0445352 -0.0201
0.0357572 0.00643861 -0.0248
0.010641 0.0467273 -0.02205
0.0388706 0.00664273 -0.0236
-0.0106754 0.0102214 -0.0074
0.039248 0.00650009 -0.0237
0.0402885 0.0190295 -0.03865
0.0423389 0.0348412 -0.0391667
0.0460485 0.0236512 -0.0459
0.0375164 0.03331 -0.0354
0.0418642 0.00637713 -0.0259
0.0712725 0.0466541 -0.03955
0.0433577 0.0460212 -0.03645
-0.0154066 0.016771 0.00319999
0.0429222 0.00635478 -0.0263
0.0432284 0.0063408 -0.02655
0.0433793 0.00630448 -0.0272
0.0432608 0.00622893 -0.03085
0.0438763 0.00611771 -0.0328
0.0370085 0.0327037 -0.03295
0.0459838 0.00616313 -0.032
0.0484631 0.00609209 -0.031
0.0249563 0.0437176 -0.0409333
0.0648307 0.0137375 -0.0508
0.025748 0.0283206 -0.0299
0.0489765 0.00609209 -0.031
0.0429245 0.0451191 -0.0411
0.000871 0.0432467 -0.04295
0.0502828 0.0062231 -0.03095
0.0505731 0.00611445 -0.0306
0.0044292 0.0411709 0.00129999
0.037846 0.0437853 -0.0388
0.0343395 0.020099 -0.0302
0.0509828 0.00624605 -0.03055
0.0519256 0.00631476 -0.0301
0.00541481 0.0172477 -0.0109
-0.00167441 0.0357372 -0.00295
0.0753332 0.0465108 -0.0359
0.0523341 0.00623611 -0.0299667
0.0528172 0.00628029 -0.02995
0.0368283 0.0336298 -0.032
0.0678835 0.0127478 -0.0529143
0.05584 0.00584337 -0.03545
0.0621014 0.00579587 -0.0363
-0.0131217 0.0379331 0.000399992
-0.0249762 0.0427981 -0.05355
-0.0200503 0.00817185 0.00029999
-0.00712205 0.0437515 -0.000550009
-0.0139092 0.0078748 -0.00480001
0.0262669 0.032202 -0.02235
0.0163591 0.0442677 -0.0556
0.0653328 0.0362846 -0.041375
-0.0124861 0.00778161 -0.0064
-0.0121351 0.00775831 -0.00680001
0.0530268 0.00706001 -0.0319
0.0343663 0.0445677 -0.05145
-0.0111185 0.00770589 -0.00770001
0.0127697 0.0432527 -0.0437
0.0749164 0.035705 -0.04295
-0.00966885 0.00782303 -0.00835001
0.0173859 0.0418561 0.0025
0.0528857 0.00768979 -0.03545
-0.0091863 0.00780818 -0.0086
0.063273 0.0247662 -0.0486
0.0445354 0.0441166 -0.05435
-0.0116853 0.0515907 0.00729999
-0.00822346 0.00777543 -0.00915001
0.013303 0.0406774 0.0019
0.0668055 0.0423437 -0.0362
0.0172758 0.0442088 -0.0232
-0.00790323 0.00776355 -0.00935001
0.0468984 0.03426 -0.039825
-0.00663431 0.00771905 -0.0101
-0.00600862 0.00770122 -0.0104
-0.00508325 0.00768642 -0.01065
-0.00415817 0.00766557 -0.011
-0.00374932 0.00760709 -0.0111333
-0.00313593 0.00769219 -0.0114
0.0618439 0.0112531 -0.0504
0.00890845 0.00739136 -0.0131
0.0208403 0.0432109 0.000899997
0.0123839 0.00741466 -0.0127
-0.00558149 0.0422911 -0.00210001
-0.00897822 0.0365551 -0.00230001
0.0139372 0.00744378 -0.0122
0.0168596 0.00759528 -0.0113333
0.0526994 0.0444981 -0.052
0.0173691 0.0074962 -0.0113
0.0300546 0.00782882 -0.0243
0.0621701 0.0221099 -0.0512
0.0178445 0.00765671 -0.01115
0.0189138 0.00765962 -0.0111
-0.00943798 0.0258246 -0.00500001
0.050245 0.0441856 -0.04835
0.0729066 0.0146923 -0.0576167
0.0193616 0.00765671 -0.01115
0.043756 0.00765549 -0.032475
0.0199452 0.0074962 -0.0113
0.0677525 0.0136992 -0.0545333
-0.0356633 0.0425333 -0.0378
0.073464 0.0351691 -0.0441
0.0208994 0.00759528 -0.0113333
0.0240268 0.00726766 -0.0185
0.0322831 0.0456152 -0.0463
-0.0224572 0.0431713 -0.0088
0.0243985 0.00721698 -0.01855
0.0401099 0.0248399 -0.0388
0.0226824 0.00820256 -0.0121
0.0253158 0.00719321 -0.01895
0.0038167 0.0242537 -0.00835001
0.0385246 0.0452112 -0.052425
0.0263243 0.00705354 -0.0189
-0.00911718 0.0351685 -0.00265
0.000435454 0.0387593 0.001
0.0273725 0.00726968 -0.0184667
0.0583961 0.00880056 -0.04148
0.0307755 0.00674775 -0.02415
0.0324453 0.00683358 -0.025
0.0343111 0.00669242 -0.0251
0.0221071 0.0440259 -0.05
0.0349075 0.00678455 -0.0250667
0.0364669 0.00671571 -0.0247
0.0309395 0.0107488 -0.02655
0.0369383 0.00672736 -0.0245
-0.012791 0.0309902 0.000399992
0.0268574 0.0362138 -0.024575
0.0374431 0.00674484 -0.0242
0.0563797 0.0078009 -0.0418
-0.0137351 0.00920875 -0.00546667
0.0393171 0.00676231 -0.0239
0.0399446 0.00684249 -0.02485
0.0583682 0.0117703 -0.0474714
0.0402302 0.00678455 -0.0250667
0.0423086 0.00663126 -0.02615
0.0875065 0.029008 -0.0428
0.0428856 0.006688 -0.02745
0.056364 0.0446356 -0.0564
0.0434873 0.00627887 -0.0322
0.046747 0.00629052 -0.032
0.0268685 0.0097318 -0.0198667
0.0251145 0.0167046 -0.0232
0.048324 0.00631382 -0.0316
0.0453773 0.0443649 -0.05
0.035959 0.0236482 -0.03455
0.0497376 0.00633129 -0.0313
0.0304958 0.0217492 -0.031
0.0547397 0.00610414 -0.0352
0.0558934 0.0060954 -0.03535
0.0209119 0.0176741 -0.01
0.0084503 0.0397178 0.00366667
0.0623558 0.00579155 -0.0405667
0.0498903 0.022758 -0.0463833
-0.0204823 0.00871079 0.000999995
-0.0200789 0.00851435 0.000499994
0.0448173 0.0110932 -0.0392
0.0494271 0.00656302 -0.0317
-0.0196496 0.00847193 -0.000200003
0.0184136 0.0220209 -0.00590001
-0.0397013 0.0424107 -0.04035
-0.017153 0.00829922 -0.00305
-0.0166387 0.00828407 -0.00330001
-0.00616365 0.00968865 -0.01035
0.0613327 0.0105504 -0.0480667
-0.043044 0.0439894 -0.0082
-0.0156501 0.00827195 -0.0035
0.0300715 0.0360223 -0.0273
-0.0135355 0.00831832 -0.00535
-0.0128295 0.00827205 -0.0061
-0.0117859 0.00820409 -0.0072
0.0698941 0.0395697 -0.041
-0.0111185 0.0081732 -0.00770001
0.0296342 0.0322525 -0.02795
-0.0106351 0.0081609 -0.0079
-0.00354237 0.00779927 -0.0113
0.0590562 0.0107764 -0.04705
-0.002625 0.00777503 -0.0117
0.0518921 0.0452898 -0.03645
-0.00111004 0.00774473 -0.0122
-0.00774964 0.0212617 -0.00670001
-0.0333217 0.0423973 -0.0387
-0.0287138 0.0430562 -0.0119
-0.000658106 0.00773867 -0.0123
0.0752184 0.00980183 -0.0528
0.0196496 0.0182292 -0.0082
0.0461161 0.0195429 -0.0432
0.000393761 0.00772655 -0.0125
0.0538567 0.0167868 -0.04782
0.0464452 0.0223357 -0.0439333
0.0629129 0.0231652 -0.05235
-0.0111913 0.0429033 -0.02735
0.000843068 0.00771746 -0.01265
0.0270006 0.0102404 -0.0205333
-5.91717e-05 0.0283243 -0.00670001
0.00144233 0.00771443 -0.0127
0.0187574 0.02237 -0.00570001
0.0431971 0.00694396 -0.0297
0.00293886 0.00770837 -0.0128
0.0497548 0.0439439 -0.0307
-0.0156449 0.0414623 0.00229999
0.00338816 0.00770837 -0.0128
0.0245224 0.0169506 -0.0234
0.00368769 0.00770837 -0.0128
0.0389502 0.0444136 -0.0505
0.00791832 0.0122589 -0.0122
0.0817994 0.0260983 -0.04465
0.00637847 0.00770231 -0.0129
0.0773757 0.0307494 -0.04415
0.0608195 0.0187414 -0.05051
-0.0353903 0.0431074 0.00219999
-0.0466003 0.0432262 -0.0149
0.007426 0.00770231 -0.0129
0.00786876 0.00769625 -0.013
0.00892249 0.00770231 -0.0129
0.00832105 0.028695 -0.00570001
0.0108765 0.00770837 -0.0128
0.0368576 0.0442421 -0.0489
0.0128738 0.00773867 -0.0123
0.013803 0.00775382 -0.01205
0.0372619 0.0341788 -0.0330667
0.0183244 0.0208143 -0.00655001
0.0132538 0.0442172 -0.057
-0.0342671 0.0434878 -0.0511
0.0142716 0.00776291 -0.0119
0.0158414 0.00779321 -0.0114
0.0642457 0.0464381 -0.0473
0.0173961 0.00781139 -0.0111
0.028415 0.00900342 -0.0232
0.018966 0.0444183 -0.00305
0.0198244 0.00781139 -0.0111
0.038322 0.0241742 -0.03655
0.0221491 0.00777503 -0.0117
0.035405 0.00774762 -0.0255
0.015447 0.00979955 -0.0109
0.0829443 0.0126972 -0.05405
0.0844747 0.0238648 -0.04505
0.0653621 0.0237649 -0.0528
0.0874818 0.0295377 -0.0418
-0.00439993 0.0417009 -0.0035
0.0224162 0.00776291 -0.0119
0.0228329 0.00775079 -0.0121
0.00581184 0.0230894 -0.0088
0.00874688 0.0216991 -0.0088
0.0279105 0.00738113 -0.0182
0.0668474 0.018729 -0.05435
0.0184778 0.0470418 -0.0429
-0.0183318 0.0511266 0.005
0.0288411 0.00704782 -0.0237
0.0294294 0.00721789 -0.0239
0.0277736 0.033282 -0.0254667
0.0318513 0.00712298 -0.0247
-0.00415495 0.0117574 -0.0111
0.0235264 0.00871044 -0.0156
0.056861 0.00840321 -0.0419667
0.0328866 0.00694783 -0.02535
-0.019748 0.00950691 0.000499994
0.0382693 0.00927541 -0.0266
0.0338463 0.00695086 -0.0253
0.00878022 0.0234875 -0.00830001
0.0342515 0.00695086 -0.0253
0.0396724 0.0273691 -0.0387
0.0245591 0.0440711 -0.0051
0.0346566 0.00695086 -0.0253
0.0369516 0.00708386 -0.0246
0.0373947 0.00714454 -0.02435
0.0636926 0.00856585 -0.049025
0.0323236 0.0151226 -0.0274667
0.0379413 0.00711658 -0.0240667
0.0403412 0.0145086 -0.0351
0.0423122 0.00687814 -0.0265
0.0425246 0.00684784 -0.027
0.0634879 0.00833261 -0.04745
0.0428461 0.0067933 -0.0279
0.0434205 0.00666891 -0.03205
0.0408918 0.0087223 -0.02855
0.0443502 0.00661792 -0.032875
0.0473295 0.0443363 -0.0584
0.0269085 0.0431699 -0.02665
0.0459601 0.00650545 -0.03265
-0.00808471 0.0227338 -0.00635
0.0463608 0.00650848 -0.0326
0.0467836 0.00651454 -0.0325
-0.0149192 0.00966143 -0.0043
0.0484 0.00654484 -0.032
-0.0362925 0.0433201 0.0018
0.0499832 0.00656908 -0.0316
0.0523764 0.00662968 -0.0306
0.0394082 0.0202009 -0.03852
0.0754184 0.0127869 -0.0539
0.0614942 0.00627214 -0.0365
0.0627269 0.00631225 -0.0409667
-0.0201218 0.00886409 0.000799999
-0.0196918 0.00882002 0.000100002
-0.019279 0.00878225 -0.000500008
0.0239983 0.0319939 -0.0246
0.0583318 0.0202559 -0.0492
0.0329755 0.0439645 -0.0558
0.0453981 0.0377654 -0.03735
0.000843263 0.00876881 -0.012625
-0.0163287 0.00877334 -0.00320001
0.0253707 0.0232321 -0.02755
-0.0142433 0.00868028 -0.00465001
-0.000270194 0.0435697 -0.0435
-0.0138886 0.00849895 -0.00500001
-0.0131742 0.00844859 -0.00580001
0.0753368 0.00959313 -0.0489333
-0.00917931 0.00826602 -0.0087
-0.0045611 0.0495593 0.0015
0.00924653 0.0102793 -0.0118667
-0.00869573 0.00824713 -0.00900001
-0.00805713 0.00822509 -0.00935001
0.011301 0.0452006 -0.02095
0.0412001 0.031194 -0.0402
-0.00758105 0.00820936 -0.0096
-0.0054399 0.0152953 -0.00940001
0.0285304 0.0088165 -0.02385
-0.00710418 0.00819047 -0.0099
0.0878416 0.0268566 -0.0423
-0.0066292 0.00832441 -0.0102
0.0653324 0.0412142 -0.03652
-0.00508521 0.00829876 -0.0106
-0.00461925 0.00828272 -0.01085
-0.00385141 0.00826669 -0.0111
0.0679571 0.0263062 -0.0467
0.0708273 0.0272888 -0.04604
-0.002625 0.00822821 -0.0117
0.0446554 0.00711077 -0.03305
-0.0460884 0.0428171 0.00695
-0.00111004 0.00819615 -0.0122
-0.0325788 0.0427853 -0.0427
0.000842932 0.00816565 -0.012675
0.00144233 0.00816408 -0.0127
0.0018905 0.0080079 -0.0128
-0.00115607 0.0274983 -0.0069
0.0548572 0.0262272 -0.04588
0.00294117 0.00816408 -0.0127
0.00384048 0.00816408 -0.0127
0.0229218 0.0413795 -0.0035
0.00444001 0.00816408 -0.0127
0.00593885 0.00816408 -0.0127
0.00683278 0.0080079 -0.0128
0.00742898 0.00800475 -0.01285
0.00894355 0.00817061 -0.0126
0.0109602 0.0147448 -0.0106333
-0.0152407 0.0430557 -0.05505
0.00939355 0.00817061 -0.0126
0.0393663 0.0441554 -0.05604
0.051394 0.0206708 -0.04585
0.00984356 0.00817061 -0.0126
0.0513832 0.0262595 -0.046475
0.0129016 0.00820752 -0.012025
-0.0361351 0.0425358 -0.0395
0.0153447 0.00820126 -0.0113333
-0.00618509 0.0127859 -0.0099
0.0199542 0.0196549 -0.022
0.0503464 0.0445929 -0.0514
0.0283387 0.0382815 -0.024075
0.0598418 0.0112466 -0.042
0.0158538 0.00810233 -0.0113
0.0161568 0.00810233 -0.0113
0.0668833 0.0202882 -0.05396
0.0174029 0.00826995 -0.01105
0.0403967 0.018125 -0.0374667
-0.00315918 0.0425274 -0.0486667
0.0194066 0.00828279 -0.01085
-0.00159628 0.019147 -0.00935001
0.020911 0.00827643 -0.01095
0.0213503 0.00826995 -0.01105
0.0229297 0.00818332 -0.0124
0.052975 0.0157597 -0.04735
-0.0137142 0.0232694 -0.000300005
0.0380968 0.0277198 -0.0365
0.0231391 0.00815125 -0.0129
