ply
format ascii 1.0
comment Created by Open3D
element vertex 1523
property float x
property float y
property float z
end_header
0.00579999 0.00608888 -0.0498901
-0.0064 0.00935462 -0.0196034
0.00409999 0.00228527 -0.00757093
0.0089 0.000958861 -0.00361554
-0.0166 0.0481599 -0.0646002
-0.00500001 0.0218508 -0.0261668
0.00209999 -0.00310036 -0.0325623
0.0097 0.079575 -0.048052
0.00379999 -0.00516918 -0.0332905
-0.00295 0.00281891 -0.0351165
-0.0335 0.0483353 -0.0676655
0.001 0.0278023 -0.0376227
-0.00300001 0.0170127 -0.0255867
0.0037 -8.97859e-05 -0.142228
-0.03405 0.0483354 -0.047107
-0.0046 0.00692992 -0.021621
0.00209999 -0.00310036 -0.0322277
-0.0043 0.00598663 -0.0227875
-0.0334167 0.0482895 -0.0671327
-0.0029 0.0267105 -0.0323851
0.000100002 0.0375222 -0.0251759
-0.0017 0.0168485 -0.0160593
0.00399999 -0.00517637 -0.0336759
0.00409999 -0.00517997 -0.0340386
-0.0017 0.0350861 -0.0232241
-0.00250001 0.0109228 -0.0371746
0.00479999 -0.00520513 -0.0352269
0.000499993 -0.00074949 -0.0221049
0.0016 -0.000755357 -0.0377828
0.0051 -0.00504507 -0.0356415
0.00579999 0.0229122 -0.0461134
-0.00150001 0.0323646 -0.0226054
-0.0153 0.0486672 -0.07086
-0.0044 0.0142844 -0.0151072
0.00579999 -0.00524108 -0.0368435
-0.0103 0.0475644 -0.0627061
0.00139999 -0.00142023 -0.0360646
0.00649999 -0.00526624 -0.0377103
0.00659999 -0.00509734 -0.0380813
-0.00330001 0.0253449 -0.031003
-0.00500001 0.0064326 -0.0261668
0.0044 0.0488749 -0.0477109
0.0016 0.07727 -0.013775
0.00729999 0.0255759 -0.0483222
-0.00500001 0.0129496 -0.0236236
0.00919999 0.0480401 -0.0475401
-0.00490001 0.0142317 -0.0161648
0.0088 -0.00114416 -0.0046643
0.007 -0.00511126 -0.0385313
0.00744999 -0.00512684 -0.03917
0.000399992 -0.00107957 -0.021593
0.005 0.0623944 0.00228378
0.00415 0.000419161 -0.141655
0.00409999 0.00296392 -0.0116429
-0.0182 0.0504036 -0.0789639
0.00785 -0.00514075 -0.0396245
0.00209999 0.00359203 -0.0131544
-0.0233 0.0452702 0.0469064
0.008 0.00513522 -0.00150261
0.00819999 -0.00515286 -0.0400673
-5.0001e-05 0.0490165 -0.074088
-0.00410001 0.0187962 -0.0164207
-0.0053 0.0275117 -0.0205578
0.00696667 -0.00262985 -0.0420988
-0.00485001 0.0213978 -0.0290601
0.00795 0.00739811 -0.00707642
-0.0102 0.0488237 -0.0535848
0.0035 0.0712106 -0.0507927
-0.0475 0.0476449 -0.0479883
0.00299999 0.032911 -0.0415237
0.00899999 -0.00535611 -0.0408099
-0.0037 0.0268756 -0.0283446
0.0098 0.0478806 0.0154112
0.00119999 0.00390177 -0.0137361
-0.00500001 0.00436625 -0.0271205
-0.0442 0.0461864 0.0373779
0.000499994 -0.0020729 -0.0176382
-0.0226 0.0452653 0.0493994
-0.03385 0.0476767 -0.0591942
0.0096 -0.00537768 -0.0416788
-0.00470001 0.0136155 -0.0281366
-0.0052 0.0078515 -0.0283501
-0.000699997 -0.00238322 -0.0281484
-0.0053 0.0122864 -0.0316596
-0.0259 0.0472172 -0.0446853
0.0087 -0.00499516 -0.0123647
0.0033 -0.00413888 -0.025076
0.0086 -0.00499181 -0.0127063
0.00579999 -0.00283775 -0.0392468
-0.003025 0.0458779 0.0413471
-0.001 0.0208616 -0.0377437
-0.00435 0.0173243 -0.0211819
0.00819999 -0.00497837 -0.0137191
-0.00910001 0.0493915 0.0462948
0.0098 0.000964657 -0.00328464
0.0071 -0.00494142 -0.0146564
0.0034 -0.00481713 -0.0169892
-0.00410001 0.0287168 -0.0241011
0.00409999 0.0290922 -0.0408252
0.00309999 -0.00480705 -0.0176276
-0.0192 0.0488519 -0.0669371
-0.00760001 0.0457486 0.0472931
0.00489999 -0.00418509 -0.036616
-0.0439 0.0481414 -0.0593605
0.00285 0.00142442 -0.0436666
0.00294999 -0.00480201 -0.018114
-0.011 0.0485228 -0.0786194
0.00459999 0.00127168 -0.00691619
0.00309999 0.000584537 -0.0429007
-0.0035 0.0497367 -0.0791725
0.00559999 0.00813769 -0.0501645
-0.000200003 -8.73491e-05 -0.0175503
0.00246666 -0.0045623 -0.0186677
-0.0054 0.0461918 0.0426906
0.0025 -0.00478689 -0.0200704
0.00754999 0.00650942 -0.00862089
-0.0157 0.0479257 -0.0586319
0.0033 -0.00110187 -0.0395862
0.0024 -0.00461598 -0.0205594
-0.0226 0.0483063 -0.0621504
0.00289999 -0.00480033 -0.021641
0.00029999 0.0488087 -0.0795594
0.007 0.00544668 -0.00183861
-0.0009 0.0198939 -0.0384259
0.00209999 -0.00410422 -0.0295507
0.0043 0.000589439 -0.141463
0.00297499 -0.0046346 -0.0221575
0.00309999 -0.00463868 -0.0226823
-0.0053 0.00245339 -0.0289634
0.0062 0.00576131 -0.00561562
0.0035 -0.00465164 -0.0235906
0.00389999 -0.00483392 -0.0245033
0.00403333 -0.00472553 -0.0250912
0.0044 0.0373137 -0.0286689
-0.028 0.0459523 0.0448856
0.0043 -0.00484736 -0.0255908
0.0088 -0.00359694 -0.010621
-0.0046 0.0158575 -0.0311863
0.0043 -0.00484736 -0.0266102
-0.0027 0.0183432 -0.0279059
0.00389999 -0.00483392 -0.0280612
0.00355 -0.00482216 -0.0286691
-0.048 0.0486872 -0.0426378
0.0037 0.00194054 -0.0122873
0.00209999 0.041404 -0.0181737
-0.0187 0.0476259 -0.0577881
5.0001e-05 -0.00157163 -0.018571
0.0017 -0.00375899 -0.0191235
-0.02405 0.0485288 -0.0616558
-0.0135 0.048774 -0.0736702
0.00304999 -0.00480537 -0.0295798
0.00435 0.00687806 -0.0466746
-0.00470001 0.01489 -0.0220831
-0.00470001 0.0139341 -0.0271808
0.00299999 -0.00480369 -0.0300746
0.00449999 0.0499296 -0.0220533
-0.0019 0.00186491 -0.0166865
0.00289999 -0.00480033 -0.0305583
-0.0251 0.0486305 -0.0639384
0.0071 0.0489226 -0.0210648
-0.00470001 0.00788062 -0.033075
0.0033 0.00227258 -0.0446479
0.00293333 -0.00468936 -0.0316313
0.00639999 0.0295566 -0.0428558
0.00304999 -0.00463712 -0.0321063
-0.03245 0.0489386 -0.0500977
-0.0393 0.0538841 0.0511462
-0.0334 0.04654 0.0102974
-0.0195 0.0494397 -0.068615
-0.00580001 0.00829058 -0.0168473
0.00346667 -0.00470688 -0.0331007
0.00389999 0.000248947 -0.0431405
-0.00150001 0.0276355 -0.0340203
-0.00490001 0.0118458 -0.0331852
0.00389999 -0.00483392 -0.0336525
-0.00470001 0.00533177 -0.0286145
0.00394999 -0.00466617 -0.0341726
0.0024 0.0274077 -0.0403435
0.0081 0.033736 -0.0109198
0.00444999 -0.0048524 -0.0346316
0.00389999 0.0293907 -0.0404296
-0.00455001 0.0523842 -0.0481026
-0.0236667 0.0483239 -0.0596224
0.00965 0.047304 -0.0223109
0.00829999 -0.00218797 -0.00744238
-0.03045 0.0486879 -0.0487078
-0.0392 0.0545311 0.0513157
0.00314999 -0.00160641 -0.0142629
0.0068 0.00440221 -0.00287317
-0.01145 0.048959 -0.0765289
0.0089 0.0219968 -0.0506002
-0.00343334 0.051905 -0.0465162
0.0072 0.0723534 0.00405157
-0.000100002 0.0034266 -0.0400746
-0.00120001 0.0365203 -0.0231446
-0.0156 0.0482572 -0.0660025
-0.0158 0.0513968 -0.0745242
-0.0243 0.0486966 -0.0515783
0.00449999 -0.00468418 -0.0351539
-0.0216 0.0474632 -0.0526425
0.0062 -0.00491118 -0.0376331
-0.0038 0.00536724 -0.0206264
0.00304999 -0.00362643 -0.0236849
0.0088 -0.00499852 -0.0411055
0.0027 0.00495132 -0.0444609
-0.00340001 0.0455914 0.049919
0.00669999 0.000944694 -0.00978024
-0.00230001 0.033799 -0.0169624
-0.0034 0.0233964 -0.0309803
0.00909999 -0.0050086 -0.0418906
0.00669999 -0.00250982 -0.0121984
0.0098 -0.00503212 -0.0431455
-2.50722e-18 0.0054071 -0.0410923
-0.00895 0.0462079 0.0488167
-0.0202 0.0478833 -0.0596124
0.0097 -0.00467624 -0.0110378
0.0095 -0.00466999 -0.0113751
-0.000300005 0.0163611 -0.137282
-0.033 0.0474704 -0.0601301
-0.00115 0.00530824 -0.0386838
0.000799999 -0.00174576 -0.0322644
0.00199999 0.0483969 -0.0475866
0.00899999 -0.00465437 -0.0116879
0.0088 -0.00464813 -0.0120226
0.000699997 0.022442 -0.0405245
0.00839999 -0.00463563 -0.0123398
-0.00490001 0.017413 -0.0325489
0.0079 -0.00462001 -0.0136913
0.0019 0.000245487 -0.0408702
-0.00286667 0.00874087 -0.038098
-0.0398 0.0518469 0.0504203
0.00209999 -0.00410422 -0.0196795
0.00929999 0.0480723 -0.0480993
0.00119999 0.0191968 -0.141416
0.0068 -0.00458565 -0.0142808
-0.00505 0.0108793 -0.0331484
0.0059 0.0143387 -0.0495807
-0.000400007 -0.000415956 -0.0319894
0.00599999 -0.00456066 -0.0147185
0.00389999 -0.00449506 -0.015693
0.0052 0.00230271 -0.14508
0.0061 0.0659641 0.00161303
-0.000350006 0.0219457 -0.0390712
-0.02265 0.0482858 -0.0577024
0.0035 -0.00448257 -0.0159873
0.00299999 -0.00413021 -0.0226664
0.0088 0.0503641 -0.0456607
0.00319999 -0.0044732 -0.0162911
-0.000799999 0.0167942 -0.0396008
0.0026 -0.00445445 -0.017566
-0.0248 0.0487575 -0.0603075
-0.0052 0.00721664 -0.0261281
0.00219999 -0.00444196 -0.019191
0.00229999 0.0290639 -0.0383047
0.00209999 -0.00443884 -0.0196795
-0.00590001 0.00938963 -0.0162032
0.007825 -0.000614543 -0.00863686
-0.0152 0.0528206 -0.0759128
0.00219999 -0.00444196 -0.0201956
-0.0026 0.0493096 -0.0131506
-0.0213 0.0502388 0.0546982
0.0095 -0.00150159 -0.0043342
0.00209999 -0.00410422 -0.0186756
-0.0025 -0.000733486 -0.02568
0.00319999 -0.0044732 -0.0230353
-0.0115 0.0486373 -0.0618234
-0.0213 0.0552701 0.0542789
-0.00470001 0.018076 -0.0325971
0.0072 0.00649397 -0.00704055
0.00579999 -0.00112109 -0.0426801
0.00389999 -0.00449506 -0.0256893
0.0061 -0.00215552 -0.0413918
0.00314999 0.0118773 -0.0459495
-0.00060001 -0.000743622 -0.0201262
-0.00310001 0.000236837 -0.0249232
0.00834999 -0.00463407 -0.0411559
0.00389999 -0.00449506 -0.0261976
-0.0053 0.00911445 -0.0321354
0.0015 0.00124441 -0.0417546
0.00479999 0.0033193 -0.00999455
0.0036 -0.00448569 -0.0271575
-0.0208 0.049889 -0.0694188
-0.0029 0.00281994 -0.017857
0.00849999 -0.00358969 -0.0434705
0.00355 -0.00448413 -0.027655
-0.03906 0.048379 -0.0616844
0.00319999 -0.0044732 -0.0280934
-0.0027 0.0264261 -0.0327556
0.000699997 -0.00108188 -0.0352234
-0.00415001 0.00679294 -0.0320898
0.007 -0.00320727 -0.0125695
0.0081 0.00444119 -0.0499796
0.0026 -0.00445445 -0.0291508
-0.0042 0.0491619 -0.0061755
-0.0374 0.0459615 0.0438967
-0.000799999 0.00187977 -0.0381258
0.0025 -0.00445133 -0.0296339
-0.00545 0.0119559 -0.0237033
-0.0214 0.0553633 0.0553503
0.0061 0.0109179 -0.0501648
0.00299999 0.034258 -0.0351257
-0.0061 0.0109522 -0.0281608
0.0025 -0.00445133 -0.0301372
-0.00310001 0.000881585 -0.0310483
-0.00210001 0.047649 -0.0121161
-0.00105 0.0233081 -0.0380573
0.0036 -0.00448569 -0.0339205
-0.00470001 0.0145714 -0.024154
0.00304999 0.00883725 -0.0449068
0.00409999 -0.00450131 -0.0347172
-0.000799999 0.000568606 -0.0187861
0.00459999 -0.00451693 -0.0355187
0.00819999 -0.0021865 -0.0100547
-0.00195 0.04445 0.0553252
-0.0125 0.048559 -0.0736521
0.00549999 -0.00454504 -0.0367677
-0.00250001 0.00493267 -0.0170998
-7.64944e-18 0.00683568 -0.0416416
-0.05005 0.0480259 -0.0601157
0.00229999 -0.00410999 -0.017194
0.0061 -0.00456379 -0.0376074
0.0098 0.0722204 0.00641602
0.0078 0.0260108 -0.0484862
0.000699997 0.0184661 -0.0451631
-0.00120001 -0.00204781 -0.0280473
-0.0165 0.0490714 -0.0725047
0.00389999 -0.000767627 -0.0414462
0.000399992 0.00437571 -0.0143195
0.00639999 -0.00457316 -0.0380293
-0.00400001 0.0242544 -0.0205961
-0.00470001 0.00724341 -0.0211273
0.00299999 -0.00379347 -0.0155949
0.00749999 0.0367254 -0.0112229
-0.03908 0.0483221 0.0448889
-0.0481 0.0467587 0.0353513
0.0051 0.00332618 -0.143955
-0.01685 0.0499472 -0.0725892
0.00669999 -0.00458253 -0.0384527
0.0071 -0.00459502 -0.0390773
0.00109999 -0.00307854 -0.0306718
-0.0045 0.0241652 -0.0246684
0.00245 0.0485503 -0.081114
0.0026 -0.00143229 -0.0377138
-0.014 0.0453174 0.0518313
-0.01965 0.0449857 0.0479483
0.0086 -0.00464188 -0.0417501
-0.00500001 0.00150515 -0.0275973
0.0089 -0.00465125 -0.0421851
0.0098 -0.00467936 -0.043851
-0.0034 0.0272564 -0.0280853
0.0078 -0.00426885 -0.0408293
-0.000650004 0.00434293 -0.0394794
0.00985 -0.00432805 -0.0101666
-0.00130001 0.00481253 -0.0157792
0.0097 -0.00432372 -0.0106853
-0.0299 0.0458211 0.0442536
-0.03405 0.045591 0.0449558
0.00454999 0.0504573 -0.0263159
-0.00155001 0.00496681 -0.0380835
0.0062 0.000941474 -0.00802554
-0.0043 0.0484866 -0.0483514
0.00459999 0.0615413 0.00466102
0.000399992 -0.00107957 -0.0325034
0.0097 0.0298703 -0.0469944
0.00939999 -0.00431506 -0.0111915
0.0088 -0.00429773 -0.0116722
-0.00330001 0.0108593 -0.0355096
0.0081 -0.00410326 -0.0123148
-0.0286 0.0550189 0.0548756
0.0079 -0.00427174 -0.0131687
-0.00220001 0.0138671 -0.0387158
0.0062 -0.00422264 -0.0142225
-0.02205 0.0478381 -0.0516093
0.00209999 0.0347116 -0.0308892
-0.00220001 0.0258734 -0.0335239
-0.000100002 -0.0017346 -0.0307404
0.00559999 -0.00420531 -0.014507
0.000949994 0.0314435 -0.0351202
-0.0195 0.0478793 -0.0610958
-0.0483 0.0455053 0.033187
-0.00565001 0.0203218 -0.0190807
0.0078 0.0482854 -0.0248194
0.00139999 -0.00208617 -0.0335673
0.0088 0.00761575 -0.00781787
0.00299999 -0.00413021 -0.0159316
-0.03606 0.0548099 0.0424141
0.000199988 0.00321385 -0.0403805
-0.00305 0.0313576 -0.0210624
-0.03485 0.048218 -0.0645793
0.0028 0.037909 -0.0169181
-0.0247 0.0468992 -0.0451553
-0.0036 0.019829 -0.0264382
0.00214999 -0.00410566 -0.0176779
0.00209999 -0.00410422 -0.0201814
-0.0046 0.0273358 -0.0251285
-0.00470001 0.00628759 -0.0239947
-0.0215 0.049038 -0.0651045
-0.0025 0.0452443 0.0439342
-0.00903334 0.0493654 -0.0511879
-0.0293 0.049199 -0.0584731
-0.04404 0.0473481 -0.0546191
0.00219999 -0.00410711 -0.0205304
-0.00470001 0.0018271 -0.0255878
-0.0052 0.0118194 -0.0159703
0.001625 0.0314273 -0.0376227
0.00119999 -0.00308072 -0.0170611
-0.0157 0.051926 -0.075999
-0.0275 0.0481445 -0.0641924
-0.00320001 0.0105451 -0.0358577
-0.00500001 0.0057968 -0.0261668
0.00219999 0.0196676 -0.0449748
0.00119999 0.00190678 -0.0419986
0.00245 -0.00411433 -0.0210697
-0.00397501 0.0173721 -0.0351742
-0.00185 0.0238246 -0.0371875
-0.0054 0.0113264 -0.0191162
0.00289999 -0.00412732 -0.0221459
-0.000400007 0.0488939 -0.0155528
-0.00495001 0.00182372 -0.0291978
0.00304999 -0.00413165 -0.0231796
-0.000550009 0.0209291 -0.0386869
0.00319999 -0.00413599 -0.0237097
0.00319999 -0.00413599 -0.0243841
0.00559999 0.0338523 -0.0107355
-0.0029 0.00120572 -0.0317394
0.000199988 0.0164197 -0.139754
-0.039025 0.0483246 -0.0621339
0.00299999 0.0453704 0.0504059
0.0095 0.0491929 -0.0191201
0.00214999 -0.00310145 -0.0330759
0.00559999 0.00836634 -0.0497074
0.0033 -0.00413888 -0.0247386
-0.0018 0.0490544 -0.0160477
-0.00470001 0.00389805 -0.0302076
-0.00130001 0.0511916 -0.0765291
0.00299999 -0.00413021 -0.027044
0.00829999 -0.00183876 -0.00744238
-0.000925 0.0488736 -0.0821397
-0.0039 0.0148179 -0.0356743
-0.00560001 0.00751172 -0.0200373
0.00209999 -0.00410422 -0.0300527
0.0034 -0.000764959 -0.0139501
0.00219999 -0.00410711 -0.0309109
0.00229999 -0.00410999 -0.0312678
-0.02345 0.0463098 -0.0466054
0.0028 -0.00412443 -0.0325546
-0.00340001 0.011977 -0.0354837
-0.00835001 0.0457994 0.04377
0.0054 0.0149743 -0.0480413
0.0009 0.0344185 -0.00806639
0.0037 -0.00415043 -0.0349593
0.00399999 -0.00415909 -0.0353713
-0.00455001 0.0252725 -0.0201938
-0.00405001 0.0143213 -0.0300325
0.0043 -0.00416776 -0.0357848
-0.0391 0.0478135 0.0454265
-0.004475 0.0208188 -0.0146201
0.00569999 -0.00420819 -0.0375044
-0.000799999 0.0474426 -0.0510735
-0.0086 0.0457125 0.0453888
-0.0027 0.047765 -0.0495681
0.0009 -0.00158122 -0.0336145
0.00795 0.0483345 -0.0215347
0.00695 -0.00407145 -0.0395564
-0.00140001 0.00219805 -0.0146253
-0.000799999 0.0248251 -0.0381258
0.0094 -0.00431506 -0.043734
0.0035 0.00362742 -0.00416025
-0.00433333 0.0223847 -0.0295973
-0.0137 0.0486968 -0.0732563
-0.0037 0.000235799 -0.0254559
0.00579999 0.0493487 -0.0474868
-0.00335 -8.53809e-05 -0.0256821
-0.0061 0.00895514 -0.0276353
0.0098 -0.00432661 -0.0442038
-0.0086 0.0460219 0.0432228
0.0098 -0.00397386 -0.00557752
0.00989999 -0.00397651 -0.00716969
-0.0383 0.0538205 0.0475829
-0.001 0.0152972 -0.13463
-0.00470001 0.00118989 -0.0267029
0.00989999 -0.00397651 -0.00805216
0.0044 0.0303428 -0.0409102
0.0089 0.0749422 -0.049899
0.0018 0.0276262 -0.0391718
0.00579999 0.0223971 -0.0461134
0.000799999 0.0264367 -0.0392271
0.0098 -0.00397386 -0.00963417
-0.0037 0.00216157 -0.0225673
0.00894999 -0.00395132 -0.0111578
0.00643332 0.0704823 -0.0581527
-0.0438 0.0475119 -0.0556844
-0.00393334 0.0173241 -0.0235967
-0.00410001 0.00391533 -0.0205809
-0.00310001 0.0479482 -0.0507132
0.00404999 0.00245402 -0.0119781
0.00319999 -0.00278715 -0.0361865
0.00739999 -0.00391019 -0.0131243
0.0017 -0.00108957 -0.0371421
-0.0234 0.0488009 -0.0646098
0.0069 -0.00389693 -0.0135987
0.0016 0.0479271 -0.0541214
-0.00365 -8.51936e-05 -0.0265891
-0.000500008 0.000241335 -0.0345945
0.0043 -0.00382796 -0.0147172
0.0024 -0.00377756 -0.0160323
0.0055 0.00641898 -0.0496163
0.000699997 0.0197914 -0.0431751
-0.0325 0.0490425 -0.0509605
-0.0026 0.00217901 -0.0191903
0.007 0.00510052 -0.00218477
-0.0487 0.0491767 -0.0643504
0.00309999 -0.00211126 -0.0142579
0.00194999 -0.00376562 -0.0166502
0.00109999 0.0371254 -0.0266847
0.0018 -0.00376164 -0.0171336
0.00156666 -0.00364454 -0.01755
0.0018 0.0249549 -0.0405075
0.000100002 0.00189192 -0.0396919
-0.0087 0.0489241 0.045818
0.0017 -0.00375899 -0.0181225
-0.00130001 0.0273488 -0.0343961
0.0016 -0.00375633 -0.0186099
-0.00320001 0.0485575 -0.0477769
-0.00470001 0.0508925 -0.0475716
-0.00840001 0.0468665 0.0420491
0.0015 -0.0035317 -0.0195408
-0.000200003 0.00188787 -0.0392777
0.00203333 -0.00354491 -0.0206179
-0.0019 0.000238913 -0.0313205
0.0024 -0.00366586 -0.0211182
-0.00590001 0.0112843 -0.0231504
0.0059 0.0263635 -0.0437401
0.00289999 -0.00362257 -0.0221459
-0.000899999 0.0278645 -0.0346046
-0.00300001 0.046854 0.040871
0.0019 -0.00159232 -0.0154749
0.0077 0.0284278 -0.0446275
0.0035 0.0350536 -0.0136219
0 0.00040692 -0.0375206
0.00299999 -0.0036251 -0.0226664
0.00289999 -0.00311781 -0.0231553
0.00289999 -0.00362269 -0.0246695
0.0062 0.00335139 -0.0469285
0.006 0.048385 -0.0829636
-0.0053 0.0490808 -0.0793972
-0.00320001 0.028907 -0.0258714
0.00299999 -0.00379347 -0.0251919
0.0025 0.000246525 -0.0417141
0.00649999 -0.00216142 -0.0121818
0.00299999 -0.00379347 -0.025697
-0.0263 0.0467839 0.0419522
0.008 0.0204698 -0.0105639
0.00204999 -0.00376827 -0.0277005
-0.0248 0.0449596 0.0514577
0.0063 0.0250578 -0.0466161
0.0017 -0.00375899 -0.0281328
0.000799999 0.00239871 -0.0412165
0.00155 -0.00375501 -0.028603
0.00659999 0.00594979 -0.00718446
-0.0052 0.050387 -0.0480307
0.0016 -0.00375633 -0.0291133
-0.00595 0.0108067 -0.0206164
-0.00470001 0.0128721 -0.0331281
-0.0052 0.0253101 -0.0235886
-0.00150001 0.00154417 -0.014778
0.00849999 0.044784 0.0503629
0.00156666 -0.00364446 -0.0306621
-0.00060001 0.00483682 -0.014874
-0.0271 0.0485816 -0.0620279
0.00194999 -0.00359867 -0.0315251
0.0035 0.00295158 -0.0450481
0.0072 0.0068406 -0.0108535
-0.0044 0.0177968 -0.0339466
0.0024 -0.00361001 -0.0326311
-0.00560001 0.00814469 -0.0251011
-0.00453333 0.0188426 -0.0171126
0.0016 -0.00175568 -0.022111
0.00119999 0.0188643 -0.140585
-0.00395001 0.0168948 -0.0297341
0.00204999 -0.00159407 -0.0231848
-0.00470001 0.0113853 -0.0335529
0.00255 -0.00361381 -0.033169
-0.00130001 0.0139577 -0.0406017
0.0015 -0.00258746 -0.0160977
0.00469999 0.0622653 0.0026198
0.00649999 0.0228497 -0.0466798
0.00289999 -0.00379082 -0.0337551
0.00303332 -0.00356994 -0.0345725
0.0061 0.0212391 -0.0468964
-0.0026 0.00314967 -0.0363386
-0.0504 0.0476281 -0.0572444
0.00459999 0.0131894 -0.0481174
0.00839999 -0.0025389 -0.00954413
0.0009 -0.000751623 -0.0226653
-0.024 0.0490961 -0.077389
0.0043 -0.00382796 -0.0361246
-0.00445 0.0214611 -0.0301038
0.00469999 -0.00383857 -0.0365655
-0.00410001 0.0194363 -0.022181
0.00579999 -0.00369608 -0.0380451
0.00139999 -8.83488e-05 -0.0390613
0.00749999 -0.0031024 -0.0120332
0.00294999 0.0477108 -0.0490832
-0.00220001 0.0294428 -0.0281698
0.00119999 -0.00341322 -0.0301948
0.00829999 -0.00253719 -0.00517246
0.00649999 0.0488957 -0.0815228
-0.0016 0.0253342 -0.036603
0.00739999 -0.0039102 -0.0410659
0.0024 -0.00277158 -0.0240802
0.00759999 -0.0039155 -0.0414692
0.00199999 0.038867 -0.0194984
0.00029999 -0.00206994 -0.0202561
-0.00215001 0.00981457 -0.0403529
-0.0028 0.0192991 -0.0349933
0.008 -0.00392611 -0.0421043
-0.0038 0.045458 0.0428774
-0.01855 0.0505447 -0.0777359
-0.0052 0.0199138 -0.0293024
0.0044 0.00331013 -0.00809686
0.0071 -0.00217027 -0.0427143
0.0087 -0.00394468 -0.0431789
0.0072 0.0359574 -0.0378905
-0.0101 0.0485554 -0.078556
0.00579999 0.0108955 -0.0495468
0.000199988 -0.00239861 -0.0261843
-0.00130001 0.000893177 -0.0196985
0.000999995 0.00439441 -0.0140486
0.00929999 -0.0039606 -0.0440562
0.0051 0.00383882 -0.00864852
-0.039475 0.0492928 -0.0636325
0.00114999 -0.00158397 -0.0246999
0.0097 -0.00397121 -0.0445268
0.0078 -9.23477e-05 -0.00863543
-0.00120001 -0.00172097 -0.0291913
-0.001 0.0496657 -0.0174499
0.00909999 -0.00360419 -0.0046737
0.00236666 0.0393583 -0.017649
0.00899999 -0.00360177 -0.00554773
0.00739999 0.0065028 -0.00965336
-0.00145001 0.0464054 0.0400284
0.00919999 -0.00360661 -0.0066092
-0.00496667 0.0188885 -0.031155
0.002 -0.00343256 -0.0266875
0.00579999 0.00505888 -0.00663025
0.0033 0.0194823 -0.0466725
-0.04815 0.0454715 0.0334576
0.00929999 -0.00360902 -0.00714099
0.00934999 -0.00361023 -0.00767086
0.00706667 0.0263435 -0.0455905
0.0024 0.048198 -0.0820915
0.0094 -0.00361144 -0.00855301
0.00929999 -0.00360902 -0.00960201
0.0016 0.00491315 -0.013775
0.00894999 -0.00360056 -0.0101055
-0.00220001 0.0291183 -0.0286565
0.00495 0.044965 0.0519464
-0.016 0.048686 -0.0701703
-0.0361 0.0481341 -0.0629552
0.0054 0.00230588 -0.00969358
0.00849999 -0.00358969 -0.0116487
0.00299999 0.076687 -0.0166051
-0.00435 0.00742181 -0.0349175
0.00409999 0.0114471 -0.0472724
0.00795 -0.00357639 -0.012128
0.0098 0.00731418 0.000242872
0.00029999 -0.00206994 -0.0308283
0.000799999 0.0450039 0.0459833
-0.00300001 0.0474992 -0.0101014
-0.00497501 0.0178804 -0.0320539
0.00749999 -0.00356551 -0.0126123
0.00729999 -0.00356068 -0.012942
-0.0095 0.0457067 0.0529142
-0.0042 0.0242187 -0.0221647
0.0019 0.0333262 -0.00879194
0.007 -0.00355343 -0.0132618
-0.000699997 0.0118859 -0.0417615
0.0051 0.0474034 -0.058876
-0.0009 -8.69118e-05 -0.0200829
0.0063 -0.00353651 -0.0135432
0.00199999 -0.00343256 -0.0161546
-0.005425 0.0133842 -0.016102
0.00165 -0.0034241 -0.016615
-0.0009 0.0483912 -0.014842
-0.0481333 0.0478954 -0.0611442
0.00119999 -0.00341322 -0.0177261
0.00744999 0.000428639 -0.0461144
0.00309999 -0.000426385 -0.0412158
0.00389999 0.0104147 -0.0461902
0.0015 0.0289005 -0.0370897
0.00119999 -0.00341322 -0.0180586
0.00564999 0.0299197 -0.0419503
0.0052 0.00691862 -0.0490009
-0.00140001 0.0258605 -0.0366559
0.00559999 0.0157948 -0.0486788
0.00464999 0.062414 -0.00266084
-0.0027 0.0228697 -0.0353422
-0.00300001 0.020884 -0.0333293
-0.0018 0.00186626 -0.0157223
0.00119999 -0.00341322 -0.0185574
0.00119999 -0.00341322 -0.0190561
0.0026 -0.00344707 -0.0256251
-0.00453334 0.0058699 -0.0181759
0.00659999 0.00577707 -0.00908315
-0.0026 0.0452114 0.0435787
-0.00590001 0.0106528 -0.0185715
0.0016 -0.00342289 -0.0271127
0.00603333 0.0524079 -0.0271593
-0.0357 0.0480738 -0.0640572
0.007 0.00786978 -0.00599251
0.00119999 -0.00341322 -0.0277011
0.001 -0.00340839 -0.0286579
0.00109999 -0.00341081 -0.029675
0.00849999 0.0479894 -0.0249369
0.00394999 0.0644847 -0.00112252
0.0016 -0.00342289 -0.031114
-0.00393334 0.00237145 -0.0316071
-0.00490001 0.0139135 -0.025709
0.0026 -0.00344707 -0.0340201
-0.00410001 0.00631547 -0.0330617
0.00319999 -0.00346157 -0.0351748
-0.00595 0.0456874 0.0483559
-0.00480001 0.00532783 -0.0281158
0.0035 -0.00346882 -0.0355864
0.00559999 0.0167092 -0.0494788
0.00639999 -0.00353892 -0.0390636
0.0069 -0.00355101 -0.0405807
0.000399992 -0.00041834 -0.0364707
0.0028 -0.00277936 -0.0145643
0.00749999 -0.00356551 -0.0417884
0.00579999 0.0311521 -0.0423368
-0.021 0.048124 -0.0634177
0.0079 -0.00357518 -0.0425983
0.00469999 0.0707839 -0.0488322
-7.5e-09 -0.00157124 -0.0310921
0.0098 -0.00362111 -0.045262
-0.0027 -8.57871e-05 -0.0249961
-0.0016 0.0038244 -0.0160709
-0.0241 0.0455057 0.0498599
0.00839999 -0.00306314 -0.00517601
-0.00390001 0.0181829 -0.0347128
-0.00470001 0.0135093 -0.0321723
0.00845 -0.00306429 -0.00570204
0.0025 0.0158501 -0.0455731
-0.023 0.0489683 -0.0525712
0.0053 0.010516 -0.0483504
-0.00415001 0.00503355 -0.021693
-0.00403334 0.0163508 -0.0245399
0.00854999 -0.00306636 -0.00658041
-0.0028 0.0144529 -0.0379011
-0.00060001 0.0333955 -0.0273479
0.0088 -0.00324654 -0.00816827
0.00854999 -0.00306636 -0.00920396
0.00839999 -0.00323781 -0.0109419
0.000399992 0.0376025 -0.0199399
-0.0026 0.0157682 -0.0161164
-0.00155 0.031375 -0.00368782
-0.0046 0.0219155 -0.0291139
0.008 -0.00305483 -0.0116095
-0.00445 0.0139598 -0.0312209
0.0015 -0.00208764 -0.0245944
0.00669999 -0.00320072 -0.0128893
-0.0251 0.0456542 0.0474004
-0.0281 0.0478878 -0.0485668
-0.00230001 0.0196937 -0.0354451
0.00749999 0.000255175 -0.0080969
0.00549999 -0.00317454 -0.0134691
-0.0113 0.0471977 0.0499113
-0.0035 0.0291651 -0.0246898
-0.03542 0.0558863 0.0448917
0.00309999 -0.00312218 -0.0145948
-0.00490001 0.00532389 -0.0276178
0.0026 -0.00311127 -0.0150475
0.002 -0.00309818 -0.0156529
-0.0061 0.00874501 -0.0265842
-0.00120001 0.0312907 -0.0301719
0.000799999 -0.00207732 -0.0170127
0.0017 -0.00309163 -0.0161204
0.0051 0.00435123 -0.142589
-0.00110001 0.0497934 -0.0795832
-0.0392 0.0462233 0.041465
-0.0478833 0.0478812 -0.0561408
-0.0051 0.0118812 -0.0327125
0.0014 -0.00308508 -0.0165857
-0.00155001 0.000891567 -0.0341711
0.000799999 -0.003072 -0.0186705
-0.0161 0.0506891 -0.078137
-0.00407501 0.0253613 -0.0290669
-0.0186 0.0492374 -0.0691276
-0.0344 0.046435 0.0464236
0.00265 -0.00311236 -0.0241225
0.0025 -0.00310909 -0.0246005
-0.0205 0.0477634 -0.0580561
-0.01605 0.0483745 -0.0676611
0.0024 -0.00310691 -0.0250861
0.000874999 -0.00257606 -0.0171876
-0.00410001 0.0271167 -0.0266613
0.00205 -0.00309927 -0.0256934
-0.0157 0.0482184 -0.0656568
-0.0205 0.047482 -0.0555235
-0.0053 0.0194761 -0.0195533
-0.000400007 0.0163494 -0.136198
0.000199988 -0.000417744 -0.0162799
0.000699997 -0.00306981 -0.027603
0.0071 -0.00217027 -0.0118853
0.000449993 -0.00306436 -0.0280499
0.0017 0.0399527 -0.0154531
0.00489999 -0.00111417 -0.0130724
0.00829999 -0.00253719 -0.00814082
-0.00955 0.0483002 -0.0529316
0.000499994 -0.00306545 -0.0290525
0.00829999 -0.00218797 -0.0444596
0.000599995 -0.00306763 -0.0295699
-0.0229 0.0451496 0.0467914
0.00595 -0.00163784 -0.0124797
0.00199999 -0.00276379 -0.0218391
-0.0053 0.0148239 -0.0203992
0.00119999 -0.00308072 -0.0310261
0.0016 -0.00308945 -0.0314474
0.0018 -0.00309381 -0.0318257
-0.0035 0.0028076 -0.0206718
0.0078 -0.00252864 -0.0115938
-0.00200001 0.0449211 0.043444
-0.00240001 0.028428 -0.0286149
-0.00946667 0.0513535 0.0449868
-0.000699997 0.000240989 -0.0335608
0.000499994 -0.0027346 -0.0302105
0.0054 0.0088113 -0.0487261
-0.00497501 0.00643376 -0.0250588
-0.0253 0.0488159 -0.0627467
0.00245 -0.003108 -0.0341521
0.00319999 -0.00312436 -0.035512
-0.0019 -0.00106189 -0.0257921
0.0059 0.00506235 -0.00715016
0.000999994 -0.00208027 -0.0251714
0.00185 -0.00276088 -0.0326721
-0.0349 0.0454727 0.0428627
0.00909999 0.0286973 -0.0475083
0.005 -0.00316363 -0.0376657
-0.0285 0.0479792 -0.0636218
0.006 -0.00318545 -0.0391288
-0.0053 0.0268773 -0.0230953
-0.00230001 0.071575 -0.015179
0.00479999 0.00127344 -0.0120404
0.00639999 -0.00319418 -0.039753
-0.0038 0.0178755 -0.0353797
0.00649999 -0.00319636 -0.0401252
-0.0086 0.0489098 0.0449762
0.00659999 -0.00319854 -0.0404978
0.00759999 -0.00304658 -0.0426857
-0.0226 0.0463711 -0.04736
0.00199999 -0.00276379 -0.0332081
0.001 0.0208297 -0.0426031
0.00796667 -0.00311227 -0.0431983
-0.0011 -0.00139512 -0.0256144
0.0088 -0.00324654 -0.0442591
-0.000799999 0.0323643 -0.0035439
0.00895 -0.00307462 -0.0446544
0.0017 0.0389517 -0.0261308
0.00139999 -0.00208617 -0.0330678
0.0094 -0.00325963 -0.0451412
0.0094 -0.00290782 -0.0043313
-0.00396667 0.000448762 -0.0256197
0.00219999 0.03708 -0.0272275
0.00849999 -0.00289031 -0.00762727
-0.0026 -0.000732953 -0.0285733
-0.0052 0.0078515 -0.0159703
0.0042 0.0501654 -0.0221775
-0.0459 0.0472501 -0.0497047
0.0063 -0.00267523 -0.012682
-0.00353333 0.019303 -0.0240945
-0.000366673 0.0052833 -0.0401077
0.00449999 -0.0026422 -0.0135466
-0.00445 0.0224186 -0.0286674
-0.000200003 0.0043569 -0.0402653
0.00379999 -0.00279883 -0.013989
-0.0487 0.0476718 -0.0596205
-0.00315001 0.00990444 -0.0366766
0.0015 0.0175715 -0.0470859
0.0025 -0.00254974 -0.0147572
0.00214999 -0.0025994 -0.0151674
-0.00460001 0.0278673 -0.0242251
-0.0044 0.0123685 -0.0341064
0.0053 -0.00111725 -0.0127663
0.0019 -0.00259478 -0.0154749
0.00165 -0.00259026 -0.0157812
0.0063 0.0457283 0.0498466
0.0098 0.0482333 -0.0556682
-0.00467501 0.00294274 -0.0251145
0.00129999 -0.0025838 -0.0164077
-0.00415001 0.0178296 -0.0200934
0.00114999 -0.00258112 -0.0167226
-0.00490001 0.0134363 -0.0226867
-0.0506 0.0481533 -0.0602744
0.007 0.0255238 -0.0471853
0.000399992 -0.00256746 -0.0186175
-0.002 0.0502833 -0.0790676
-0.03985 0.0474582 0.0414334
0.000399992 -0.00262253 -0.0190584
0.00639999 0.00714817 -0.0121735
0.000949994 -0.00257758 -0.0206819
0.00229999 -0.00276963 -0.0222203
0.0019 0.0336603 -0.0375287
-0.00500001 0.00373045 -0.0296637
0.0025 -0.00260586 -0.0230905
-0.03935 0.0475766 -0.0670298
-0.00396667 0.0164656 -0.0301042
-0.00495001 0.00738897 -0.0280846
0.0024 -0.00260404 -0.0235773
-0.000799999 0.0317087 -0.0296032
0.00839999 -0.0025389 -0.00762213
0.00206666 -0.00265371 -0.0246372
0.00555 0.00162277 -0.0105603
0.0019 -0.00276185 -0.0251652
0.0081 0.0703546 -0.0560827
0.00469999 0.024443 -0.0440618
-0.0061 0.0103216 -0.0209087
0.0077 0.0475572 -0.0595832
-0.0096 0.0481282 -0.0793192
0.00815 -0.00218576 -0.00865582
0.0016 -0.00275601 -0.0254454
-0.0038 0.0214035 -0.031531
0.00109999 0.0148637 -0.0436301
-0.00500001 0.0048431 -0.0266436
-0.00240001 0.0157911 -0.015654
-0.00505 0.0258149 -0.0250449
0.00106666 -0.00252427 -0.025571
-0.00490001 0.0155042 -0.0188691
-0.0061 0.00874501 -0.0231158
0.0025 0.0213869 -0.0437275
0.00795 0.00687545 -0.00968932
0.000199988 -0.00272876 -0.0271747
-0.0476333 0.0477211 -0.0466866
-0.00470001 0.0139341 -0.0325971
0.00649999 0.00128839 -0.00907695
-0.048475 0.0489745 -0.0646167
-0.00210001 0.0707048 -0.0145516
4.9993e-05 -0.00256112 -0.0296189
0.000799999 -0.00274044 -0.0306066
-0.0009 0.0307032 -0.03253
0.0033 0.0130708 -0.0459976
-0.00220001 0.00770174 -0.0380668
0.00299999 -0.00278326 -0.0357992
-0.00456667 0.0224525 -0.0271012
0.0037 -0.00279688 -0.0366512
-0.0297 0.048242 -0.0613786
-0.0025 0.0214999 -0.0345303
-0.00410001 0.00215522 -0.0311416
0.0059 0.0627817 0.00573363
-0.00570001 0.00718988 -0.0187574
0.0063 0.00783231 -0.00527495
0.00409999 -0.00280467 -0.0370925
0.00744999 0.000602306 -0.00514263
-0.0133 0.0485527 -0.0615541
0.00593333 -0.00261138 -0.0400845
-0.00840001 0.0479513 -0.0516937
0.0053 0.00264645 -0.142785
-0.00500001 0.0129496 -0.0315711
0.0064 -0.00284943 -0.040615
-0.00585001 0.0484067 -0.00309944
0.00829999 0.00724094 -0.00953769
0.00654999 -0.00267998 -0.0411741
-0.04645 0.0481857 -0.0640638
-0.00490001 0.0492266 -0.0793148
0.00104999 -0.00108457 -0.0361415
-0.000200003 -8.73491e-05 -0.0178795
0.0086 0.000432041 -0.00413315
-0.0061 0.0464245 -0.00356662
0.0069 -0.00285916 -0.0416184
0.0035 0.0448532 0.0522717
0.0095 -0.00290977 -0.0455234
0.00409999 0.0119562 -0.0476117
0.00989999 -0.00291755 -0.0459982
-0.00320001 0.00829013 -0.0371463
0.00919999 -0.00255259 -0.0043255
-0.0043 0.00534754 -0.0301371
-0.0034 0.0483792 -0.0095357
-0.0038 0.0129043 -0.0355401
0.0086 -0.00254233 -0.00465803
-0.0486 0.046863 0.0344057
0.00839999 -0.0025389 -0.00604958
0.000499994 -0.0020729 -0.0206159
0.00829999 -0.00253719 -0.00656933
0.0019 0.00559186 -0.0435434
0.00309999 0.0123786 -0.0459334
0.00129999 -0.00175196 -0.0160749
-0.006425 0.0104538 -0.0251043
-0.00317501 0.0493718 -0.00767203
0.00839999 -0.0025389 -0.00709794
-0.00130001 0.00709882 -0.0396219
0.00659999 0.00784837 -0.00563099
-0.0297 0.0474628 -0.0647552
0.00839999 -0.0025389 -0.00919467
-0.0034 0.0237181 -0.0306586
0.00819999 -0.00253548 -0.0105782
-0.00230001 0.0284487 -0.0296085
-0.0219667 0.0473623 -0.0496537
0.008 -0.00253206 -0.011261
-0.0206 0.0509568 0.0568483
0.00579999 -0.00249442 -0.0128102
-0.0035 0.00570049 -0.0206718
0.0054 -0.00248758 -0.0131175
0.00816666 -0.00160453 -0.00766826
0.00685 0.00613273 -0.00857987
0.000599995 -0.00240546 -0.0176507
0.0078 -0.000788431 -0.0091575
0.000199988 -0.00239861 -0.0192513
-0.00883333 0.0489259 0.0464407
-0.000300005 0.0301777 -0.0339861
0.0062 -0.00250127 -0.0407316
0.002625 0.0383664 -0.0180728
-0.01495 0.0488038 -0.0726786
0.0019 -0.0024277 -0.0221579
0.00219999 -0.00243283 -0.0225396
0.00459999 0.00297421 -0.0457339
-0.0037 0.00296397 -0.0326775
0.000399992 -0.00240204 -0.025891
-0.000100002 -0.00239348 -0.0264577
-0.00490001 0.0485903 -0.0487738
-0.00455001 0.00581595 -0.018599
-0.00140001 -0.000412977 -0.02458
-0.000500008 -0.00238664 -0.0272032
-0.0218 0.0450171 0.050571
0.000199988 -0.00239861 -0.030146
0.000966663 -0.00163731 -0.0341836
0.000399992 -0.00240204 -0.0305197
-0.00060001 0.00483682 -0.0394936
-0.0035 0.00328963 -0.0184218
0.000699997 -0.00240717 -0.0309162
0.00319999 0.0262129 -0.0415818
0.0019 -0.0024277 -0.0345214
0.00503333 0.00150312 -0.0116044
0.00209999 -0.00243112 -0.035072
-0.0042 0.00343277 -0.0215251
0.0027 -0.00244139 -0.0360601
-0.03055 0.0482566 -0.0499517
-0.00230001 0.0234226 -0.0364179
-0.000500008 0.0319414 -0.0306525
-0.00555001 0.00941414 -0.0316008
-0.0018 0.0357115 -0.0219055
0.0035 -0.00245507 -0.0369381
0.00819999 -9.25976e-05 -0.00708838
-0.00295 0.00394841 -0.036246
0.00129999 -0.0020847 -0.0327117
0.0063 0.00542074 -0.0085478
0.00559999 -0.002491 -0.0395358
-0.0052 0.0205487 -0.0175575
0.00659999 -0.00250811 -0.0415334
0.0035 0.0793206 -0.0105807
-0.00455 0.00533768 -0.0241808
-0.0046 0.0518866 -0.0480849
-0.0478 0.0485759 -0.064659
-0.0267 0.0460857 0.047941
-0.0051 0.0264407 -0.0245591
-0.00410001 0.048238 -0.0495427
0.00829999 -0.00253719 -0.0441104
0.00919999 -0.00255259 -0.0454321
0.0069 0.0479914 -0.0513043
-0.00315001 0.0218279 -0.0331318
-0.00456667 0.0153298 -0.031566
0.0096 -0.00255943 -0.0459062
-0.004325 0.0208418 -0.0245404
0.00829999 -0.00218797 -0.00569628
-0.0028 0.0289915 -0.0265933
0.00829999 -0.00218797 -0.00656933
0.00829999 -0.00218797 -0.00709316
-0.00937501 0.0474422 0.0483507
-5.0001e-05 0.00436151 -0.0146032
0.00819999 -0.0021865 -0.00778634
-0.00216668 0.0123558 -0.0376433
-0.0062 0.0103139 -0.0215232
-0.032 0.0485076 -0.0486543
-0.0144667 0.049485 -0.0776399
0.00819999 -0.0021865 -0.00813533
0.008 0.02744 -0.0461122
0.00599999 0.0492443 -0.0210791
0.000199988 0.0233527 -0.0393901
0.00754999 0.0073781 -0.00670984
0.00829999 -0.00218797 -0.00918848
-0.01665 0.051045 -0.0772093
0.00715 0.0456475 0.0499629
0.0077 -9.22852e-05 -0.0456709
0.00899999 0.0704313 -0.0525639
-0.00220001 0.0245754 -0.0351464
-0.00300001 0.0450798 0.0532913
0.008 -0.00218355 -0.0110867
0.00399999 -0.00212453 -0.0136694
-0.00120001 0.0373374 -0.0211836
0.00229999 0.047829 -0.0530486
0.0035 -0.00211716 -0.0139598
-0.000699997 0.0468206 0.0389329
-0.000350006 0.00237906 -0.0392356
-0.0027 0.0180199 -0.0170748
0.0025 -0.0021024 -0.0148692
-0.0025 0.0455681 0.0458769
0.00219999 -0.00209798 -0.0151728
0.0016 0.0315885 -0.03945
0.0094 0.0481045 -0.0595654
0.00229999 -0.00176436 -0.0366292
0.0019 -0.00209355 -0.0154749
-0.0507 0.0476789 -0.0547396
-0.0046 0.02893 -0.0220994
0.00129999 -0.0020847 -0.0164077
0.001 -0.00208027 -0.0167049
0.0079 0.0239387 -0.0492156
0.000399992 -0.00207142 -0.0181216
0.00119999 0.0404768 -0.0193886
0.000199988 -0.00206847 -0.018591
0.0009 0.0284462 -0.0366006
-0.00120001 0.00383546 -0.0386699
-3.22855e-18 0.0496933 -0.0175754
-0.0111 0.0474228 0.0496853
0.000100002 -0.00206699 -0.0190726
-0.0316 0.0457517 0.0434428
0.0025 0.000917647 -0.0427208
-6.66677e-05 0.0487908 -0.0761112
0.000100002 -0.00206699 -0.0198973
-0.000799999 0.0326921 -0.00419949
-0.0042 0.0235792 -0.026162
-0.0053 0.00848006 -0.0295978
0.00129999 -0.000753757 -0.0154095
-0.0397 0.0529221 0.0517303
0.0017 -0.00159008 -0.0241287
0.00139999 -0.00208617 -0.0217468
-0.00285 0.0328565 -0.0160874
0.00119999 0.00323678 -0.0134036
-0.034 0.0481086 -0.0624804
-0.0026 0.0183566 -0.0373092
-0.049 0.0482293 -0.0615672
0.00209999 -0.0020965 -0.0225237
0.0015 0.0318994 -0.0360901
0.00219999 -0.00209798 -0.0232093
0.00209999 -0.0020965 -0.0236949
-0.0141 0.0658861 -0.0306289
0.00219999 0.00192028 -0.00512713
0.00839999 0.00742055 -0.00762213
0.0063 0.0209237 -0.0476496
0.00839999 0.000256732 -0.00500122
0.0019 -0.00209355 -0.0241628
0.0052 0.00435423 -0.010706
0.000649996 -0.0010815 -0.0330581
-0.00115 -0.00204855 -0.0270765
-0.014 0.0470976 0.0485675
-0.0038 0.0201206 -0.0246354
0.00209999 0.00258817 -0.0047889
0.0079 0.0726975 0.00581223
-0.0035 0.0195221 -0.026779
-0.00120001 -0.00204781 -0.0275571
-0.000699997 -0.00205519 -0.0292965
-5.5904e-18 -0.00206552 -0.0304327
0.0009 -0.0020788 -0.0316237
0.000399992 0.00288782 -0.0136582
-0.004375 0.00390737 -0.021657
0.00119999 -0.00208322 -0.0321898
-0.0100333 0.0483762 0.0487701
0.00139999 -0.00208617 -0.0340667
0.00899999 0.0514844 -0.0699319
-0.00095 0.000404157 -0.0195844
0.00909999 0.0202708 -0.00958914
-0.0286 0.0484608 -0.0587117
0.0017 -0.0020906 -0.0351401
-0.00120001 0.00122067 -0.0151368
0.00399999 0.00397915 -0.00417475
0.00119999 0.0484568 -0.076911
0.0081 0.0452448 0.0502853
0.0019 -0.00209355 -0.0355238
0.00209999 -0.0020965 -0.0359085
-0.0288 0.0553129 0.0551699
-0.02915 0.0479605 -0.0625983
0.0036 -0.00211863 -0.0376401
-0.053375 0.047908 -0.0506265
0.008 0.0277885 -0.0454152
-0.0044 0.0142844 -0.0275604
-0.00220001 0.0193835 -0.0367688
-0.0098 0.0495874 0.0471204
0.00409999 -0.00212601 -0.0381105
-0.00405001 0.0239253 -0.0271513
0.00805 0.0445322 0.0509656
0.0044 -0.00213044 -0.0385299
0.00515 -0.0021415 -0.0395846
-0.00470001 0.01489 -0.022561
0.00214999 0.0389081 -0.0191842
0.00569999 -0.00214961 -0.0405923
0.00669999 -0.00216437 -0.0422527
0.006 0.0298196 -0.0423949
-0.000400007 -0.00107342 -0.0201551
-0.0026 0.0468291 -0.0114251
0.00399999 -0.00110725 -0.0407968
0.00729999 -0.00217322 -0.0431192
9.9994e-05 0.0284496 -0.0355681
-0.0063 0.0103061 -0.0211923
0.00829999 0.0480996 -0.0217604
0.0087 -0.00219388 -0.0449297
0.0094 -0.0022042 -0.0458448
0.00299999 0.079381 -0.010207
-0.00500001 0.0186718 -0.019173
0.0086 -0.00184248 -0.00465803
0.0061 0.0735329 0.00470937
0.00842499 -0.00166552 -0.00517679
0.00844999 -0.00166577 -0.00605162
-0.0156667 0.0504759 -0.0771904
-0.00480001 0.0128095 -0.032573
-0.0202 0.0476012 -0.0573556
0.0081 -0.00166202 -0.00917609
-0.00470001 0.00246431 -0.0303669
0.00806667 -0.00171969 -0.0101038
0.00579999 0.00540221 -0.0114369
0.0024 0.0391441 -0.0146912
0.0037 0.063527 0.00327846
-0.000533337 -0.000634635 -0.0206831
-0.00295 0.00152801 -0.0225301
0.00734999 -0.00165354 -0.0115585
-0.0245333 0.0487795 -0.0620783
-0.00210001 0.0447264 0.0547781
0.00644999 -0.00164344 -0.0121776
-0.0284 0.0480222 -0.0623648
0.00539999 -0.00163172 -0.0127751
-0.000799999 -8.69743e-05 -0.0210807
-0.0011 0.0149591 -0.135515
0.0044 -0.0017904 -0.0133673
0.008 0.0378954 -0.0342628
0.00394999 -0.00161527 -0.0136647
-0.00060001 0.0058216 -0.0142175
0.00849999 0.00742566 -0.001158
-0.0494667 0.0481951 -0.0611806
0.0043 -0.00178916 -0.0391828
-0.00500001 0.0139033 -0.0215573
-0.039175 0.0549007 0.049429
0.00289999 -0.00160355 -0.0145744
-0.00220001 -0.00105958 -0.0286565
0.000566661 -0.00152222 -0.0172052
-0.032075 0.048855 -0.0506536
-0.0044 0.0238637 -0.0246866
-0.00355 0.005859 -0.0351233
0.007 -0.00164967 -0.0432044
-0.00470001 0.0152086 -0.0319599
0.00929999 0.0195949 -0.0113599
0.00705 0.0490793 -0.0792317
-1.21973e-18 -0.00162603 -0.0201029
-0.00490001 0.014868 -0.0335033
0.000399992 -0.0017408 -0.0206012
-0.0261667 0.0469281 0.043431
-0.00553334 0.0123707 -0.0261689
-7.46776e-18 0.00485764 -0.0406526
0.000533327 -0.00152189 -0.021062
-0.0403 0.0471275 0.0407777
-0.000533337 -0.00161981 -0.0254999
0.0035 0.049584 -0.0170011
0.000799999 -0.00174576 -0.021323
-0.000799999 0.00482988 -0.0391091
9.9994e-05 -0.00107726 -0.0210521
-0.0061 0.0106369 -0.0216969
0.000999994 -0.00158246 -0.0216853
0.000599995 -0.00108111 -0.0246036
0.00409999 0.00533923 -0.0455758
0.00193333 -0.00164843 -0.0227202
-0.00850001 0.0454376 0.0533196
0.0076 0.00738066 -0.00184612
0.000399992 -0.00157537 -0.0250643
-0.00110001 -0.00172221 -0.026105
0.0026 0.0224093 -0.0430866
0.0061 0.00713352 -0.00285947
-0.0016 -0.00171601 -0.0271518
-1.13923e-18 0.033869 -0.00620167
-0.00435 0.0181228 -0.0200639
0.00593333 0.0058654 -0.0116764
-0.0006 -0.00161907 -0.0301929
-0.0038 0.00488615 -0.0331347
0.000449993 -0.00157611 -0.031688
0.0033 0.0387166 -0.0139404
-0.0259333 0.0454126 0.0428037
0.0009 -0.00158122 -0.0326191
0.000949994 -0.00158184 -0.0331285
-0.0027 -0.000732419 -0.0261277
-0.00320001 0.00539088 -0.0355356
-0.0279 0.0479734 -0.065284
0.000999996 -0.00152705 -0.0350772
-0.00130001 0.0361674 -0.0236179
0.0015 -0.00175444 -0.0355903
0.000599995 -0.00108111 -0.0166575
0.00199999 -0.00176064 -0.0362176
0.00219999 0.0138076 -0.04464
0.00255 -0.0015998 -0.0371969
-5.00008e-05 0.0333626 -0.00718818
-0.00120001 0.0054697 -0.0383431
-0.00590001 0.0112843 -0.0310449
-0.0475 0.0474271 -0.055721
0.0034 -0.001778 -0.0379254
-0.0164333 0.0493886 -0.0730287
0.00759999 0.0204144 -0.0112305
0.00399999 -0.00178544 -0.0387623
-0.00470001 0.0515297 -0.0478902
-0.00153334 0.00241343 -0.0155353
-0.00500001 0.0123138 -0.0226699
0.00459999 -0.00179288 -0.0396048
0.00739999 0.0481548 -0.0532144
0.000149995 0.00238758 -0.0400361
0.00829999 0.0302894 -0.0448088
0.00569999 -0.00180652 -0.0412785
-0.00590001 0.0518621 -0.0493602
0.000799999 -0.00075109 -0.0365747
0.00749999 0.030126 -0.0438724
0.000399992 -8.7724e-05 -0.037132
-0.00415001 0.0234279 -0.0276112
-0.0052 0.0278495 -0.0205731
-0.031 0.04562 0.0440681
-0.0302 0.0480233 -0.061359
0.0088 0.0797974 -0.0446095
0.0059 -0.001809 -0.0416787
0.00639999 -0.0018152 -0.0421663
0.0028 0.0332013 -0.0414657
-0.0217 0.0450552 0.0468531
-0.0045 0.0145929 -0.0162127
-0.00205001 0.00787238 -0.0390828
0.00579999 -0.00112109 -0.0124669
0.00659999 -0.00181768 -0.0425691
0.0063 0.050207 -0.0193998
0.00516667 0.00378344 -0.144591
0.0079 -0.00165966 -0.0441655
-0.00410001 0.00535542 -0.022181
0.00705 0.0063144 -0.00755261
0.0088 -0.00184496 -0.0453103
0.000399992 0.00487152 -0.0143195
-0.000300005 0.00813691 -0.0418814
-0.00230001 0.0475799 -0.00755894
0.0045 0.0451657 0.0512749
0.00909999 -0.00167324 -0.0457528
0.00945 -0.0016771 -0.046212
0.000100002 -0.000417446 -0.0165982
0.00464999 0.00740335 -0.0476232
0.0045 -0.00145137 -0.0133766
0.00119999 -0.00141822 -0.0160636
-0.0027 0.00541059 -0.0363121
-0.0016 0.0272897 -0.0339958
0.000100002 -0.00140717 -0.0205572
0.00029999 0.0174225 -0.0440435
0.0098 0.0482333 -0.0505533
0.0016 -0.00142224 -0.0224445
-0.0112 0.0487509 -0.0780426
0.0026 0.00427626 -0.0132007
-4.62144e-18 -0.00140617 -0.0251579
-0.0079 0.0450228 0.0540295
-0.00150001 -0.00139111 -0.0260297
-0.0285 0.0479791 -0.0490497
-0.00210001 -0.00138508 -0.0270537
-0.0019 -0.00138709 -0.0280685
-0.00205001 0.0488031 -0.047204
0.00109999 0.0334705 -0.0326654
-0.0019 -0.00138709 -0.0283937
-0.00315001 0.00893767 -0.0376433
-0.00150001 -0.0013911 -0.0291282
-0.0121 0.0475067 0.0492998
0.00579999 0.0623953 0.00263971
-0.00130001 -0.00139311 -0.0294969
-0.00900001 0.047887 0.0443252
-0.000400007 0.00336447 -0.0395503
-0.01085 0.0478188 0.0494775
-0.000400007 -0.00140215 -0.0306745
0.00559999 0.0053948 -0.0474216
0.00119999 -0.00141822 -0.0356811
0.00754999 0.000255262 -0.00757841
0.0016 -0.00142224 -0.036449
0.0033 -0.00143932 -0.0385738
0.0043 -0.00144936 -0.0402022
0.0044 0.079138 -0.010647
0.00459999 -0.00145237 -0.0406263
0.00885 0.0728139 0.00637539
0.0087 -0.00149355 -0.0452798
0.00749999 0.0502714 -0.0765219
0.0086 -0.00114262 -0.00570781
0.00464999 0.00280487 -0.0106654
0.00989999 0.0479125 0.0150685
0.0086 -0.00114262 -0.00605773
-0.00060001 0.00188247 -0.0385088
-0.0037 -8.51623e-05 -0.0270607
-0.0051 0.00229814 -0.0266239
-0.0053 0.011652 -0.0156413
0.00829999 -0.00114032 -0.00709316
0.0033 0.00227258 -0.00719146
0.00795 -0.00113763 -0.00864414
-0.00435 0.00390813 -0.0226193
-0.0025 0.00541847 -0.016614
0.0068 -0.00112878 -0.011861
-0.0347 0.0482868 -0.0635555
-0.000500008 0.0271781 -0.0360728
0.00399999 -0.00110725 -0.0136694
0.0036 -0.00110418 -0.0139695
0.00154999 0.0019115 -0.0426028
0.00309999 -0.00110033 -0.0142579
0.00209999 -0.00109264 -0.0151621
-0.000699997 0.000240989 -0.0332328
-0.0035 0.00345047 -0.0181003
0.0027 0.0486355 -0.0804164
0.00144999 -0.00108764 -0.0155922
-0.000150002 -0.00107535 -0.0187092
0.000100002 -8.75366e-05 -0.0363928
-0.000400007 -0.00107342 -0.0191689
-0.000100002 0.0193495 -0.0416119
0.0018 -0.00109034 -0.0234779
0.0069 0.00613482 -0.00806397
0.00139999 -0.00108726 -0.0240776
0.00119999 -0.00108572 -0.0243761
-0.000699997 -0.00107111 -0.0250321
0.00739999 0.0491961 -0.0254464
0.00569999 0.0060847 -0.0495128
-0.00150001 -0.00106496 -0.0255407
0.00459999 0.00331471 -0.0103213
-0.0268 0.0487107 -0.0592605
-0.0025 -0.00105727 -0.0271371
0.0086 0.0275513 -0.0476989
-0.00345 0.0188861 -0.0240557
-0.00320001 0.0240749 -0.0307035
0.0088 0.0507145 -0.0277905
-0.00403334 0.0198726 -0.0271012
-0.000799999 -0.00107035 -0.0305866
-0.0017 0.0451818 0.0516802
-0.0035 0.00537906 -0.0351362
-0.03295 0.0480809 -0.0657461
4.9993e-05 -0.00107688 -0.0315981
-0.0038 0.00665014 -0.0353797
0.000549995 -0.00108072 -0.0336964
-0.0309 0.0459188 0.0435947
0.00199999 -0.00109188 -0.0375551
0.0024 -0.00109495 -0.038164
-0.000500008 0.0258641 -0.0378794
0.00309999 -0.00110033 -0.039194
-0.0036 0.015011 -0.0155175
0.0035 -0.00110341 -0.0399793
0.0035 0.00666866 -0.013284
-0.0026 0.0219157 -0.0350444
0.00549999 0.00127959 -0.0110707
-0.00500001 0.0129496 -0.0310943
0.0042 -0.00110879 -0.0411931
0.0062 0.0233193 -0.0465842
0.0068 -0.00112878 -0.0436642
0.00585 0.00488895 -0.00457183
-0.0038 0.00248071 -0.02223
0.00839999 -0.00114109 -0.0451885
0.0089 -0.00114493 -0.0456914
0.00929999 -0.00114801 -0.0461657
-0.0052 0.0126129 -0.0210492
0.0051 0.0713213 -0.0566552
0.0097 -0.00115108 -0.0466419
0.0098 -0.0007991 -0.00399014
-0.00245 0.0449369 0.0538292
0.0097 0.011187 -0.0110378
-0.0019 0.0311329 -0.0046541
0.0024 0.00125233 -0.0131822
0.00929999 -0.000796433 -0.0043284
0.000599995 0.0482509 -0.0153331
-2.48183e-17 0.0173853 -0.135104
0.0088 -0.000618567 -0.0046643
-0.000400007 0.0465927 -0.0139091
0.0086 -0.000792699 -0.00605773
-0.0035 -8.52873e-05 -0.0280647
0.00469999 -9.04107e-05 -0.0433803
0.00849999 -0.000792166 -0.00657808
-0.0051 0.00293353 -0.0296418
0.008 0.0769288 -0.0489003
-0.0423 0.0489429 -0.0608089
0.0016 0.0029125 -0.0434513
-0.00470001 0.0136155 -0.0316413
0.008 -0.000615242 -0.00812435
0.00199999 0.0398142 -0.0157086
0.00749999 -0.000613281 -0.0105282
-0.000550002 0.000405261 -0.017178
0.00695 -0.000611054 -0.0115271
0.00303333 -0.000538511 -0.0141388
-0.00396668 0.00140984 -0.0306383
-0.00400001 0.0457115 0.0444157
0.0018 0.0286279 -0.0378362
0.00219999 -0.000758558 -0.0148379
-0.0422 0.0478415 -0.0587985
0.0079 0.0277698 -0.0450362
0.0016 -0.000755357 -0.0151087
-0.005075 0.0118304 -0.0151909
0.00989999 0.00237725 -0.0491751
0.0045 0.0162427 -0.0477439
0.007 -9.18478e-05 -0.0451083
-0.000133335 0.0388868 -0.0235971
0.00139999 0.0323208 -0.0396162
-0.0516 0.0476147 -0.0551246
7.49975e-05 -0.000582385 -0.01709
-5.0001e-05 -0.000581836 -0.0175691
-0.0149 0.0494125 -0.0787466
0.00379999 0.0195503 -0.047174
-0.00745001 0.0479853 -0.0526913
-0.000125002 -0.000581495 -0.0180537
-0.04166 0.0498192 -0.0650977
-0.000100002 0.0170434 -0.136161
-0.000200003 -0.000745755 -0.0185379
0.00839999 0.0502287 -0.0654569
-0.000200003 -0.000745755 -0.0211715
0.00549999 0.00436322 -0.00353298
-0.0029 0.00588698 -0.0359364
-5.0001e-05 -0.000581836 -0.0216886
0.00102499 0.0014062 -0.0411164
0.00114999 -0.000752957 -0.0235365
0.00114999 0.0407949 -0.0185507
0.0089 0.000608229 -0.0474445
0.000799999 -0.00075109 -0.0239755
-0.0503 0.0462027 0.0322519
-0.00410001 0.0178362 -0.0289014
-0.000200003 0.0170312 -0.135076
0.00394999 0.00584207 -0.0455283
-0.0172 0.0487932 -0.0686237
0.000399992 -0.000748956 -0.024238
-4.50032e-18 -0.000746822 -0.0244986
-0.0061 0.0468975 -0.00356662
-0.00250001 -0.00057171 -0.0290796
0.000699997 -0.000750556 -0.0362174
-0.00590001 0.0457044 0.0441109
0.000499994 0.00338616 -0.0411286
-0.00060001 -0.000743622 -0.0247218
-0.0530333 0.0478664 -0.0545721
-0.00150001 -0.000738821 -0.0250512
-0.00285 0.00185208 -0.0215776
-0.0064 0.00935462 -0.0235359
0.0063 0.000253099 -0.0114761
-0.00220001 -0.000735087 -0.0254116
-0.00305 -0.000569483 -0.0276733
-0.000799999 0.000568606 -0.036159
