ply
format ascii 1.0
comment Created by Open3D
element vertex 1505
property float x
property float y
property float z
end_header
-0.0311531 0.0176212 -0.0577588
-0.0310667 0.0176709 -0.0584091
-0.00167338 0.018378 -0.0106983
-0.0224324 0.0424514 -0.0264541
-0.00259091 0.0181072 -0.0106876
-0.00325618 0.0180313 -0.0106399
-0.00117199 0.068505 0.00143672
-0.00470838 0.0178984 -0.0110551
-0.0286244 0.0194362 -0.0226289
-0.00549264 0.0178162 -0.0111135
-0.011601 0.0463179 -0.0118936
-0.00631563 0.0179518 -0.0112057
-0.0103839 0.0493201 0.0570811
-0.00680854 0.0178542 -0.0113927
-0.00787233 0.0175757 -0.0114353
-0.00836189 0.0175251 -0.0114832
-0.0254051 0.0407061 -0.0480029
-0.0254047 0.0432993 -0.0310023
-0.00815881 0.0461865 0.0523685
-0.0309197 0.0310154 -0.0350545
-0.00876911 0.0174872 -0.0115885
0.0303395 0.0431095 0.0413495
-0.0202587 0.049854 -0.016889
-0.0119211 0.0171961 -0.0124479
-0.0129629 0.0170823 -0.0124525
-0.0131644 0.0509651 -0.0121014
-0.013202 0.0170696 -0.0126665
-0.0221985 0.0388633 -0.0281156
-0.0102419 0.0392985 -0.0153395
-0.0106437 0.0632537 -0.00673538
-0.0146353 0.0169178 -0.0127491
-0.0322989 0.0183138 -0.0525433
-0.0151112 0.0168671 -0.0127734
-0.0144758 0.0241952 -0.0128729
-0.0163415 0.0168519 -0.0122042
-0.0187334 0.0164496 -0.0124473
-0.021293 0.0163344 -0.0126806
-0.0218279 0.0161458 -0.013007
-0.0228522 0.0162386 -0.0138812
-0.0340861 0.0242967 -0.0346389
-0.0307896 0.0288785 -0.0295292
-0.000645291 0.0683187 0.00288233
-0.027451 0.0159434 -0.0195465
-0.0299767 0.0159687 -0.0243211
-0.0303482 0.0159687 -0.0249646
-0.0314565 0.0159434 -0.0264843
-0.0324877 0.0159181 -0.0278704
0.00160971 0.0335451 -0.0148119
-0.0211913 0.0338049 -0.0232043
-0.0536616 0.046315 0.0178553
-0.00131888 0.0692548 0.00251566
-0.0343941 0.0158675 -0.0303722
-0.014955 0.0327803 -0.0169028
0.00148016 0.0489815 -0.0130363
-0.0346846 0.0158549 -0.0306755
-0.0349748 0.0158422 -0.0309781
0.00892444 0.046666 0.00345758
-0.0351222 0.0158422 -0.0312335
-0.0360639 0.0158042 -0.0322645
-0.0366242 0.0158232 -0.0335349
-0.0366763 0.0158549 -0.0341251
-0.036689 0.0158802 -0.0345473
-0.0364621 0.0160067 -0.0361542
-0.0363593 0.0160826 -0.0371761
0.00825111 0.0465125 0.00109136
-0.0281414 0.0381541 -0.0371422
-0.0202901 0.0479113 -0.0527434
-0.0362006 0.0162769 -0.0376013
-0.0504099 0.047599 -0.0215125
-0.039168 0.0489405 -0.0654409
-0.0190276 0.045577 -0.0241568
-0.0361198 0.0163791 -0.0390613
-0.0201828 0.0212843 -0.0179576
-0.0361304 0.0164616 -0.0395796
-0.036503 0.0164366 -0.040625
-0.0368266 0.0163104 -0.0415855
-0.0369784 0.0163104 -0.0418484
-0.00680961 0.0483058 0.00560541
-0.000946548 0.0471318 -0.000139474
-0.0363934 0.0165128 -0.0440352
-0.0135615 0.0458578 -0.0125893
-0.0307406 0.017677 -0.0526442
-0.0146249 0.0462982 0.0159689
-0.0309697 0.0176643 -0.0528411
-0.0316095 0.0177655 -0.0555493
-0.0648051 0.048211 -0.0369958
-0.0316474 0.0177909 -0.0560149
-0.0101645 0.0498032 0.0567945
-0.0248782 0.0461255 -0.0394902
-0.0316857 0.0178162 -0.0564813
-0.017626 0.038808 -0.0235291
-0.031661 0.0178541 -0.0570385
-0.000503331 0.0186891 -0.0108718
-0.00425138 0.0182508 -0.0105636
-0.00478947 0.0183589 -0.0105956
-0.00803587 0.0179028 -0.0117185
-0.0158991 0.0240145 -0.0133381
-0.0237995 0.025761 -0.0184219
-0.00868803 0.0178513 -0.0120481
-0.0296442 0.0498805 -0.0360118
-0.00885111 0.0178513 -0.0123305
-0.0617577 0.047929 -0.0271007
-0.00986127 0.0461581 0.0190198
-0.00844694 0.0179415 -0.0130305
-0.00844902 0.0179673 -0.0134341
-0.0197995 0.0664867 -0.0184937
-0.0171543 0.0223315 -0.0141122
-0.00788598 0.0180833 -0.0142589
-0.0214981 0.0187387 -0.0150357
-0.0343881 0.0188987 -0.0300952
-0.00789411 0.0181348 -0.015073
-0.0283146 0.0495647 -0.0342423
-0.0135987 0.0174002 -0.0135537
-0.0264282 0.0284297 -0.023375
-0.0326034 0.0648642 -0.0300706
0.00584442 0.0457473 0.0528229
-0.0319732 0.0181512 -0.0519792
-0.014315 0.0173099 -0.0133943
-0.0162565 0.0397432 -0.020957
-0.016854 0.016949 -0.012192
-0.0192041 0.0166913 -0.0122624
-0.0218308 0.0164335 -0.0128121
-0.0329766 0.025862 -0.0333171
-0.0361094 0.0197698 -0.0439434
-0.0221338 0.0164206 -0.0131368
-0.0165124 0.0463025 -0.0222002
-0.0238695 0.0163433 -0.0149433
-0.0240955 0.0163304 -0.0151347
-0.0243213 0.0163175 -0.0153256
-0.00919416 0.0504347 0.0575419
-0.031125 0.0338556 -0.0433101
-0.0135188 0.0462727 -0.0140153
-0.0246969 0.0163952 -0.015643
-0.0253704 0.0164145 -0.0163429
-0.00681257 0.0343901 -0.0124664
-0.025707 0.016395 -0.0166258
-0.0343318 0.0237986 -0.0345644
-0.0259674 0.0163885 -0.0169769
-0.0707148 0.0478774 -0.0361317
-0.0261158 0.0163885 -0.0172339
-0.0630858 0.0488206 -0.0232678
-0.0263571 0.0163853 -0.0176019
-0.0249385 0.0468438 -0.0361948
-0.0254855 0.0417341 -0.0529422
-0.0608142 0.0462862 -0.0319832
-0.026895 0.0163821 -0.0184835
-0.0293102 0.0283706 -0.0264669
-0.0270059 0.0163885 -0.0187756
-0.0272284 0.0163885 -0.019161
-0.0264562 0.0307901 -0.0254235
-0.0274138 0.0163951 -0.019582
-0.0275993 0.0162401 -0.0198034
-0.0278222 0.0164145 -0.0205894
-0.0281193 0.0162659 -0.0211041
-0.0263078 0.0227492 -0.0195664
0.00350319 0.0326686 -0.0131323
0.00842372 0.0465125 0.00139033
-0.0281699 0.0164858 -0.021525
-0.00953843 0.0529503 0.059279
-0.0284366 0.0164373 -0.0220036
-0.0116825 0.0309114 -0.0116346
-0.0267682 0.0408743 -0.0312304
-0.0582768 0.0474429 -0.0265385
-0.0286911 0.0163909 -0.0224943
-0.0289391 0.0162917 -0.022924
-0.0165631 0.0258036 -0.015188
-0.0290879 0.0162917 -0.0231818
-0.0220858 0.0476647 -0.0500537
-0.0299065 0.0162917 -0.0245995
-0.0302221 0.0164373 -0.0250962
-0.0713645 0.0471984 -0.020407
0.00303081 0.0457806 0.0520495
-0.0308462 0.0164771 -0.0260271
-0.0310168 0.0162659 -0.0261227
-0.0278462 0.0370747 -0.0334311
-0.0272663 0.0388531 -0.0428266
-0.00825161 0.0462515 0.0519078
-0.0258541 0.0586139 -0.0529806
-0.0321948 0.0163756 -0.027563
-0.0324525 0.016369 -0.0279093
-0.0223351 0.0464783 -0.0160188
-0.0327086 0.0163088 -0.0281864
-0.0331477 0.0162915 -0.0286801
-0.0333683 0.0163365 -0.0289955
-0.0172696 0.0428166 -0.0225118
-0.0114493 0.0566214 0.0561693
-0.010318 0.0467066 -0.0100712
-0.0335161 0.0163365 -0.0292516
-0.0417667 0.046431 0.0384579
-0.0296151 0.0237892 -0.0246948
-0.0337554 0.0163333 -0.029616
-0.0341031 0.0163234 -0.0300684
-0.0629096 0.048799 -0.0485626
-0.00612275 0.055425 -0.0101382
-0.0343972 0.0163684 -0.0305109
-0.0345417 0.0161628 -0.030628
-0.0194352 0.0465402 -0.0124628
-0.036535 0.0161628 -0.0340804
-0.0366217 0.0161886 -0.0346306
-0.0365005 0.0162401 -0.0352207
0.00539755 0.0565199 -0.00205116
-0.0364475 0.0162788 -0.0357288
-0.0220253 0.034497 -0.0251489
-0.0258741 0.0397706 -0.0356152
-0.0363357 0.0163432 -0.0365354
-0.0366174 0.0167065 -0.0410899
-0.0369457 0.0167723 -0.0418918
-0.0318839 0.0179415 -0.0536246
-0.035942 0.025891 -0.0372534
0.00162698 0.02784 -0.011882
-0.0319838 0.0179544 -0.0539975
-0.0323218 0.0180188 -0.055583
0.00424968 0.0198168 -0.0119393
0.000334487 0.0191355 -0.0110206
-0.000836413 0.018978 -0.0106487
-0.0328638 0.0187345 -0.0525218
-0.00192132 0.0188336 -0.0103278
-0.00275455 0.0187286 -0.010171
-0.0284233 0.0324604 -0.0542305
-0.00350299 0.0186368 -0.0100673
-0.00400136 0.0185843 -0.0101306
-0.00449881 0.0185318 -0.0101922
-0.0284334 0.0334893 -0.0284481
-0.0257944 0.0486982 -0.0354771
-0.00507864 0.0184924 -0.0105965
-0.008612 0.0182824 -0.0135164
-0.00805117 0.0184136 -0.014545
-0.00825868 0.0184202 -0.0150044
-0.00822543 0.0184661 -0.0156469
-0.0213683 0.0167862 -0.012811
-0.0218279 0.0167469 -0.013007
-0.0360922 0.0167337 -0.0375134
-0.0148692 0.0319761 -0.0153542
-0.0225863 0.0167075 -0.0137206
-0.063652 0.0486193 -0.0225485
-0.0227345 0.0169162 -0.0141107
-0.0293253 0.0354006 -0.033993
-0.00618468 0.0507118 -0.00551218
-0.00783101 0.0486652 -0.0059637
-0.0230406 0.0166812 -0.0141074
-0.0238695 0.0167911 -0.0149433
-0.0246213 0.0167515 -0.0156452
0.0113725 0.0466725 0.0118978
-0.0274507 0.0165631 -0.019946
-0.0279712 0.0165762 -0.0210475
-0.0257339 0.023339 -0.0195724
-0.0253647 0.0197459 -0.0171329
-0.0288295 0.0167581 -0.0230342
-0.0289421 0.0167646 -0.0233292
-0.0176987 0.0258922 -0.0164549
-0.0292966 0.016768 -0.0239932
-0.00869175 0.0185837 -0.0132546
-0.0651621 0.0484156 -0.0371041
-0.0637358 0.0479887 -0.0396936
-0.0296721 0.0167322 -0.0245535
-0.0314626 0.0165631 -0.0268948
-0.018566 0.0367443 -0.0241572
-0.0244695 0.0295674 -0.0219824
-0.0363812 0.016445 -0.0336141
-0.0391995 0.0483367 -0.0695956
-0.0364264 0.0165368 -0.0350924
0.0109778 0.0466021 0.00741408
-0.051302 0.0481956 -0.0588576
-0.0443017 0.0477056 -0.0655328
-0.0353433 0.0193801 -0.0316164
-0.0362125 0.0167715 -0.0360219
-0.0442726 0.0478434 -0.0644824
-0.0250462 0.0422255 -0.0555813
-0.0361427 0.0166943 -0.0370011
-0.0359003 0.0169368 -0.0379812
-0.0356125 0.0182834 -0.0394826
-0.0177347 0.042371 -0.0225173
-0.0211236 0.0659144 -0.0209871
-0.0360111 0.0168387 -0.038973
-0.0335036 0.028192 -0.0362298
-0.00619371 0.0502782 -0.00492781
-0.0360295 0.016865 -0.0394049
-0.0361242 0.0168912 -0.0399689
-0.0194902 0.0217253 -0.0183579
-0.0163674 0.0503784 -0.0145492
-0.0363614 0.0169043 -0.0405797
-0.0377131 0.0482852 -0.0667211
-0.0355735 0.0173243 -0.0456151
-0.0319715 0.0180855 -0.0509762
-0.0320044 0.0181118 -0.0514332
0.0124062 0.0467844 0.0108882
-0.0322691 0.0181905 -0.0530917
-0.0358917 0.0477943 -0.0685663
-0.0328083 0.0183602 -0.0541256
-0.0187129 0.0253654 -0.0176118
-0.0328124 0.0183933 -0.0546328
-0.00125275 0.0192517 -0.0103698
-0.027527 0.0285534 -0.0538781
-0.0361589 0.0192705 -0.0374291
-0.00400048 0.018891 -0.00972902
-0.00482953 0.0188108 -0.00996498
-0.00586303 0.0187641 -0.0110551
-0.0072608 0.0186706 -0.0120761
-0.0113376 0.0473576 -0.0254372
-0.00771111 0.0186372 -0.012356
-0.00820087 0.0187017 -0.0125377
-0.0252498 0.0488083 -0.047534
-0.0243901 0.048403 -0.0449781
-0.00913924 0.0185503 -0.0135296
-0.0611798 0.0479101 -0.0415665
-0.00966646 0.0185036 -0.0137428
-0.0291133 0.0344054 -0.0331258
-0.052597 0.045832 0.0129494
-0.00974909 0.0185169 -0.0140859
-0.0177004 0.0213652 -0.0146581
-0.0215138 0.0171141 -0.013463
-0.0218201 0.0170874 -0.0135935
0.00387231 0.0666611 -0.0116929
0.00219517 0.0480894 -0.0105979
-0.0223538 0.0170473 -0.0139179
-0.0249208 0.016887 -0.0159642
-0.0251458 0.0168736 -0.0161537
-0.0252945 0.0168736 -0.0164113
-0.0257419 0.0168603 -0.0169863
-0.0259648 0.0168603 -0.0173723
-0.026635 0.0168336 -0.0181332
-0.0268575 0.0168336 -0.0185186
-0.0197726 0.0383391 -0.0254471
-0.0271543 0.0168336 -0.0190326
-0.027265 0.0168536 -0.0195245
-0.0481954 0.047921 -0.0505436
-0.0274507 0.0168603 -0.019946
-0.0275993 0.0168603 -0.0202033
-0.0277852 0.0168669 -0.0206253
-0.00796579 0.0460008 0.0104029
-0.0278973 0.016887 -0.0211196
-0.0281206 0.016887 -0.0215063
-0.0307011 0.0168915 -0.0260425
-0.0186922 0.0188193 -0.0141091
-0.0201485 0.0475498 -0.00459825
-0.0311327 0.0168803 -0.0266234
-0.0314626 0.0168603 -0.0268948
-0.0125613 0.021325 -0.0131567
0.0153791 0.0471135 0.0118374
-0.0318307 0.0168469 -0.0273323
-0.0324172 0.0168202 -0.0279482
-0.0326358 0.0168068 -0.0281269
-0.033075 0.0169863 -0.0286209
-0.0341031 0.0169146 -0.0300684
0.00228619 0.0326031 -0.0146402
-0.0242522 0.0394955 -0.033106
-0.0343987 0.0169146 -0.0305803
-0.0347286 0.0169078 -0.0310518
-0.0148795 0.0334925 -0.0173721
0.00102433 0.0471751 -0.0178258
0.00548758 0.0466846 0.00370479
-0.035273 0.0168339 -0.0316279
-0.0360748 0.0167133 -0.0326833
-0.00384381 0.0463909 0.0203423
-0.0360861 0.0168876 -0.033103
-0.0329579 0.0584191 -0.0546847
-0.0361925 0.0168564 -0.0335538
-0.036252 0.016928 -0.0339902
-0.0166902 0.0536921 -0.0129082
-0.0118802 0.0218766 -0.0128772
-0.0362713 0.0168202 -0.0346237
-0.0362315 0.016887 -0.0355548
-0.0198601 0.0335162 -0.0210987
-0.0357391 0.0173873 -0.0391687
-0.0358306 0.0173594 -0.0396603
-0.0481025 0.0480818 -0.049716
-0.0291696 0.0178362 -0.0241231
-0.0359491 0.0173661 -0.0399656
-0.0360678 0.017221 -0.0402712
-0.0361865 0.0173796 -0.0405769
-0.033184 0.0183702 -0.0500763
-0.0214808 0.056253 -0.0322059
-0.0324896 0.01837 -0.0512736
-0.0396178 0.0219543 -0.0381202
-0.00305638 0.0708861 0.00440621
-0.0225376 0.0394475 -0.0276362
-0.0324582 0.01841 -0.0518192
-0.0326245 0.0184768 -0.0531074
-0.0328688 0.0184768 -0.0535304
0.000206145 0.0300443 -0.0138429
0.00446787 0.0203524 -0.0116614
-0.028526 0.0321474 -0.0546085
-0.00628409 0.0471377 0.00351564
0.00387231 0.0202844 -0.0116929
-0.0247194 0.0302727 -0.0225652
-0.0183813 0.0423214 -0.0226373
-0.0335851 0.0633047 -0.0507711
-0.0311267 0.0483685 -0.050113
0.00100718 0.0199037 -0.0110555
-0.00016583 0.0197406 -0.0106872
-0.00791165 0.0556015 0.0570966
-0.00283599 0.0193599 -0.00971207
-0.00511894 0.0190812 -0.00956625
-0.035239 0.0261637 -0.0372357
-0.00623253 0.01902 -0.0105951
-0.00639725 0.01902 -0.0108804
-0.0259823 0.0401783 -0.0364027
-0.00684909 0.018986 -0.0111629
0.00634788 0.0467027 -0.00560515
-0.00721836 0.0189656 -0.0115026
-0.0216546 0.0477752 -0.0521069
-0.00803664 0.0189113 -0.0121199
-0.0125624 0.0200024 -0.0125588
-0.00869175 0.0189113 -0.0132546
-0.0304027 0.0233693 -0.0263591
0.0108713 0.0467049 0.0108297
-0.00913924 0.0188773 -0.0135296
-0.00966864 0.0188569 -0.0141466
0.00217107 0.046619 0.00636042
-0.00910252 0.0333476 -0.014166
-0.0100785 0.0188705 -0.0150564
-0.0102419 0.0188705 -0.0153395
-0.0422942 0.0465035 0.0379443
-0.0100859 0.0189249 -0.0158693
-0.0125666 0.0259642 -0.0115661
-0.0200489 0.0175653 -0.0131258
0.00127728 0.0533959 0.00181234
-0.0227315 0.0173342 -0.0143721
-0.0231879 0.0172934 -0.0145626
-0.0191763 0.0268989 -0.0166143
-0.0236988 0.0174054 -0.0148976
-0.0101247 0.0478282 -0.00613647
-0.0232553 0.0426418 -0.0290793
-0.0240571 0.0173815 -0.0151683
-0.0267063 0.0223327 -0.0200567
-0.0243193 0.0173745 -0.0155222
-0.0250697 0.0173335 -0.0162219
-0.0260757 0.017313 -0.0176644
-0.0266334 0.017306 -0.0185305
-0.0268563 0.017306 -0.0189165
-0.0272278 0.017306 -0.0195599
-0.0132821 0.0273733 -0.0126052
-0.0275622 0.017313 -0.0202391
-0.0158247 0.0564341 -0.0126091
-0.0278973 0.0173335 -0.0211196
-0.0212732 0.0408955 -0.0235462
-0.0281022 0.0173369 -0.0215244
-0.0241583 0.0492827 -0.0206433
0.027759 0.0445927 0.04488
-0.0104375 0.0584259 -0.0103783
-0.0285694 0.0173609 -0.0226838
-0.029224 0.017378 -0.0240674
-0.0263416 0.023769 -0.022025
-0.0253918 0.0308375 -0.0239799
-0.0202823 0.0459134 -0.02363
-0.0296151 0.0173746 -0.0246948
-0.029893 0.0173644 -0.0250261
-0.0159735 0.0263432 -0.0148669
-0.0302091 0.0173609 -0.0255237
-0.0196729 0.036779 -0.0255411
-0.0421727 0.0463191 0.0324213
-0.0306891 0.0173403 -0.0260551
-0.0314626 0.017306 -0.0268948
-0.0318307 0.0172923 -0.0273323
-0.0321417 0.0172752 -0.0276212
-0.00940587 0.0554081 0.0543086
-0.0324525 0.017258 -0.0279093
-0.0323853 0.0311222 -0.038493
-0.0326358 0.0172512 -0.0281269
-0.032784 0.0172512 -0.0283835
-0.0353485 0.0170351 -0.0318254
-0.0199575 0.0510102 -0.0191673
-0.0361865 0.0172913 -0.0341435
-0.0597899 0.0466562 -0.0291591
-0.0441365 0.0489853 -0.0585466
-0.0361701 0.0172856 -0.0347483
-0.0224313 0.0473581 -0.0138521
-0.0361164 0.0173266 -0.0352554
-0.0360633 0.0173678 -0.0357635
0.000481243 0.0461232 0.0120335
-0.035944 0.0174226 -0.0363567
-0.0213639 0.0678867 -0.0190034
-0.0187891 0.038295 -0.0249437
-0.00467735 0.0523595 -0.00650142
-0.0358589 0.0173206 -0.0369095
-0.0388075 0.0220335 -0.0376166
-0.0358082 0.0173614 -0.0374217
-0.0363814 0.0175381 -0.0410145
-0.0363048 0.0177285 -0.0436818
0.00548886 0.0554125 -0.00329299
-0.0360032 0.0178236 -0.0445594
-0.00066616 0.048602 -0.0103538
-0.0340445 0.0182995 -0.0481668
-0.0349748 0.0189378 -0.0309781
-0.0331883 0.0187345 -0.0530838
-0.036803 0.025785 -0.0372115
0.00472822 0.020895 -0.0114104
0.00417395 0.0208322 -0.0114705
0.00294298 0.0205113 -0.0115026
-0.0534873 0.0467632 0.0181573
-0.0712279 0.0478885 -0.0360102
0.000209404 0.0203164 -0.0109372
-0.00482964 0.0194186 -0.00916516
-0.00569729 0.0193426 -0.00956799
-0.00619138 0.0193149 -0.0100238
-0.0157406 0.0282819 -0.0134635
-0.00672562 0.0192941 -0.0106491
-0.00770879 0.0192112 -0.011152
-0.0274398 0.0401256 -0.0343272
-0.0112811 0.0458723 0.0134606
-0.0103255 0.0192112 -0.0156842
-0.0182585 0.018077 -0.0130247
-0.0202731 0.0178972 -0.0139141
-0.0207353 0.0178557 -0.0141145
-0.0213497 0.0178004 -0.0143788
-0.00779869 0.033869 -0.0135077
-0.0227544 0.0177484 -0.0146117
-0.0231858 0.0177566 -0.014759
-0.0335161 0.0173716 -0.0292516
-0.0620035 0.0480585 -0.0413932
-0.0338076 0.0173578 -0.0295565
-0.035201 0.0173302 -0.0315698
0.014689 0.0453452 0.0499421
0.00292193 0.0467596 0.00486093
0.00274048 0.0470941 -0.00565334
-0.020199 0.0550297 -0.0135857
-0.0353485 0.0173302 -0.0318254
-0.0184005 0.0210224 -0.0154705
-0.0148562 0.0465342 -0.00793166
-0.035496 0.0173302 -0.0320809
-0.0357514 0.0173232 -0.0324233
-0.00837092 0.0683789 -0.00369886
-0.0360182 0.017344 -0.0331853
-0.0284388 0.0291718 -0.0516574
-0.0456973 0.0497891 -0.0425501
-0.036098 0.0173578 -0.0335235
-0.0169943 0.0677736 -0.015635
-0.0355756 0.017924 -0.0386187
-0.0522797 0.0458018 0.0134823
-0.0245212 0.0458067 -0.031272
-0.0355938 0.0178004 -0.0390503
-0.0169962 0.0501513 -0.0144383
-0.0356884 0.0178281 -0.039614
8.73396e-05 0.0454252 0.0528513
-0.0358498 0.0178419 -0.0400937
0.00220257 0.0455219 0.0533149
-0.0363156 0.0178557 -0.0411004
-0.0222615 0.0386995 -0.0285581
-0.0366196 0.0178557 -0.041627
-0.00542662 0.0729692 -0.00639915
-0.0361094 0.018077 -0.0439434
0.00464413 0.0309279 -0.0113561
-0.00717731 0.046756 0.00756855
-0.0048223 0.0467224 0.00484754
-0.0356782 0.0182015 -0.0449964
0.00835725 0.046559 0.00527521
-0.0343685 0.0185473 -0.0477279
-0.0257616 0.034316 -0.0278203
-0.0338797 0.0186856 -0.0488813
-0.000786111 0.0683575 0.00443842
-0.0308674 0.0303901 -0.0335638
-0.032942 0.0189899 -0.0516572
-0.0331203 0.0190037 -0.0521661
-0.00911845 0.0252152 -0.0077936
-0.0139321 0.0687116 -0.0109312
0.0196716 0.0455741 0.0484723
-0.0262708 0.0244298 -0.0225023
-0.033363 0.0190037 -0.0525864
-0.0335248 0.0190037 -0.0528666
-0.0256241 0.0643477 -0.0206824
0.00285924 0.0208464 -0.0114476
-0.00192132 0.0201853 -0.0103278
-0.00648143 0.0195523 -0.00922617
-0.00872886 0.0194046 -0.0110188
-0.0622896 0.0473846 -0.0345554
-0.0243199 0.0482756 -0.0387234
-0.0220178 0.0435718 -0.050136
-0.011143 0.0478309 0.0567998
-0.00925743 0.0193554 -0.0112343
-0.0173155 0.0185255 -0.0133913
-0.0187986 0.0183707 -0.0137602
-0.0200375 0.0182582 -0.0143059
-0.026806 0.0456106 0.0531706
-0.020346 0.0182301 -0.0144403
-0.0289352 0.0347708 -0.0309173
-0.0224225 0.0179909 -0.0146368
-0.007089 0.0455832 0.0523215
-0.0242985 0.0179924 -0.0150862
-0.0248827 0.0179358 -0.0159982
-0.0250697 0.0179288 -0.0162219
-0.00559037 0.0453503 0.0560172
-0.0252929 0.0179288 -0.0166086
-0.0282545 0.0411961 -0.0325383
-0.0255905 0.0179288 -0.0171241
-0.0103587 0.0208995 -0.0100418
-0.0264466 0.0179218 -0.0185068
-0.0398896 0.0624099 -0.0370909
-0.0270049 0.0179004 -0.0191739
-0.0611099 0.0470598 -0.0300455
-0.0209564 0.0559203 -0.0154975
-0.0272278 0.0179004 -0.0195599
-0.0274507 0.0179004 -0.019946
-0.0249322 0.0338242 -0.0273838
-0.0275993 0.0179004 -0.0202033
-0.0112691 0.0562611 0.0564813
-0.0522259 0.047454 -0.0404579
-0.0202201 0.0307779 -0.0171222
-0.0279712 0.0177659 -0.0210475
-0.0361991 0.0202722 -0.0426487
-0.0100696 0.0558056 -0.011041
-0.0285694 0.0178081 -0.0226838
0.00393929 0.046666 -0.00517694
-0.0191593 0.0706079 -0.0489849
-0.0348038 0.0481662 -0.0525818
-0.02872 0.0178221 -0.0231445
-0.0296151 0.0178221 -0.0246948
-0.0305762 0.0179288 -0.0257595
-0.0300159 0.0287658 -0.027189
-0.0312575 0.0178968 -0.0264896
-0.0322479 0.0178472 -0.0275049
-0.0324877 0.0176955 -0.0278704
-0.0302806 0.0264136 -0.0266976
-0.0334382 0.0178011 -0.0289167
-0.0172428 0.0605648 -0.0126655
-0.0241194 0.0475218 -0.027776
-0.0336209 0.0177939 -0.0291331
-0.0338251 0.0177975 -0.0295367
-0.0346139 0.0178314 -0.0306864
-0.0356382 0.0177585 -0.0321271
-0.0266894 0.040855 -0.0560273
-0.0358252 0.0177657 -0.032551
-0.00981026 0.0373545 -0.0151252
-0.00912751 0.0514136 0.0559907
-3.6743e-05 0.0471154 -0.0170636
-0.0359386 0.0177728 -0.0328475
-0.0360182 0.0177869 -0.0331853
-0.0182901 0.0189114 -0.0139792
-0.036098 0.0178011 -0.0335235
-0.0241289 0.0462972 -0.0431925
-0.0360781 0.0178698 -0.0351557
-0.0112856 0.0260797 -0.0105472
-0.02908 0.0777541 -0.0525014
-0.0359625 0.0178362 -0.0358888
0.0103724 0.0465701 0.00656562
-0.0358432 0.0178925 -0.0364822
-0.0355938 0.018255 -0.0390503
-0.0257595 0.0228489 -0.0186168
-0.0357076 0.0183117 -0.0400473
-0.0257264 0.0409265 -0.0536594
-0.0221739 0.0733686 -0.0250063
-0.0359025 0.0183189 -0.0404851
-0.0360216 0.0181738 -0.0407913
-0.0143274 0.0348996 -0.0174159
-0.0361409 0.0183331 -0.0410978
-0.0293935 0.023808 -0.024511
-0.00639927 0.0322896 -0.0116838
-0.0282878 0.0378515 -0.0408958
-0.0363363 0.0183402 -0.0415363
-0.035914 0.018427 -0.0442049
-0.0350543 0.0186802 -0.0463158
-0.0341383 0.0189475 -0.0485293
-0.033716 0.0190741 -0.0495978
-0.0334909 0.0192991 -0.052408
0.00439184 0.021367 -0.0111931
-0.0122435 0.0308431 -0.0120064
0.00323982 0.0214203 -0.0114885
0.00285924 0.0211954 -0.0114476
-0.0117446 0.0363654 -0.0159423
0.00226664 0.0211239 -0.011474
-0.0124085 0.0457584 -0.0156922
0.00159172 0.0210381 -0.0114431
-0.0181885 0.0378437 -0.0245033
0.0222621 0.0451704 0.0459592
0.000751428 0.0209237 -0.0112985
-0.00942142 0.0196222 -0.0107184
-0.0102313 0.0195507 -0.0111211
-0.0228947 0.0401857 -0.0268549
-0.0106747 0.0195292 -0.0115891
-0.0286107 0.0304429 -0.0529552
-0.0167499 0.0411182 -0.0224116
-0.0109562 0.0195221 -0.0119768
-0.0112783 0.0194935 -0.0121346
-0.0113581 0.019565 -0.0132729
-0.0112786 0.0196079 -0.0137351
-0.0252902 0.0203421 -0.0170038
-0.0113599 0.0196222 -0.0140759
-0.0152663 0.019093 -0.0134421
-0.0408513 0.046047 0.0344434
-0.0165305 0.0189214 -0.0132316
-0.0188793 0.0470073 0.0214
-0.0181875 0.0356652 -0.0226017
-0.0168443 0.0188928 -0.0133752
-0.0172366 0.0188499 -0.0134547
-0.0191062 0.0186783 -0.0142928
-0.0192599 0.0188323 -0.0145592
-0.0200346 0.0185925 -0.0147009
-0.0262221 0.0248526 -0.022618
-0.0632598 0.0485421 -0.0233693
-0.020499 0.0452745 -0.0249053
-0.0203431 0.0185639 -0.0148353
-0.022711 0.0252298 -0.0183366
-0.00944322 0.0232594 -0.00795614
-0.0043589 0.0470692 0.00185017
-0.0218076 0.0183779 -0.0147718
-0.0513481 0.0480708 -0.0439375
-0.0233784 0.0183202 -0.0145925
-0.0321203 0.0475789 -0.0548339
-0.0242262 0.0182759 -0.0147611
-0.0541823 0.0493057 -0.0421797
-0.0284186 0.0182808 -0.0220891
-0.0286061 0.018248 -0.0226472
0.0155628 0.0453088 0.0499555
-0.0288892 0.0182805 -0.0235875
-0.0291696 0.0182841 -0.0241231
-0.0172814 0.0465032 0.0547677
-0.0294659 0.0182697 -0.0244365
-0.0298929 0.0182588 -0.0250261
-0.0722892 0.0473235 -0.0210371
-0.030281 0.0182408 -0.0254482
-0.0614128 0.047922 -0.02517
-0.0549246 0.0486031 -0.0435323
-0.0359104 0.0181777 -0.0363985
-0.0345405 0.0454647 0.0409074
-0.034399 0.0248741 -0.0364808
-0.00857275 0.0348852 -0.0137484
-0.0358866 0.0184254 -0.0370241
-0.0168392 0.0539113 -0.0165663
-0.0356744 0.0182921 -0.0375899
-0.0364337 0.0185209 -0.042105
-0.0365208 0.0185353 -0.0424558
-0.025228 0.0475933 -0.0300962
-0.0358815 0.0188969 -0.0442485
-0.0232304 0.0475158 -0.0532363
-0.0351841 0.0189643 -0.0461406
0.00329864 0.047686 -0.0104866
-0.027911 0.0407539 -0.0351433
-0.00719648 0.0454783 -0.0234647
-0.0344332 0.0191645 -0.0476401
-0.0153446 0.0463303 0.0174223
-0.033716 0.0193934 -0.0495978
0.0043498 0.0218873 -0.0111659
0.00336917 0.0216025 -0.0113644
-0.00780602 0.0199453 -0.00792042
-0.026041 0.0237875 -0.0217043
-0.0183218 0.0310481 -0.0161343
-0.00796134 0.0200034 -0.00898943
-0.00918008 0.0199307 -0.0101004
-0.00974834 0.0198726 -0.0102846
-0.017626 0.0392902 -0.0235291
-0.0107591 0.0197781 -0.0107353
-0.00294279 0.047942 -0.00449705
-0.0117261 0.0198354 -0.0110101
-0.0118035 0.0197054 -0.0115444
-0.0221081 0.0316675 -0.0200924
-0.0119211 0.0197563 -0.0124479
-0.0120007 0.0197708 -0.0127859
-0.0260462 0.0390541 -0.0517134
-0.0120807 0.0197854 -0.0131243
-0.012161 0.0198144 -0.0136634
-0.0587611 0.0471404 -0.0273771
-0.0313104 0.0474426 -0.052631
-0.0124815 0.0197999 -0.0140186
-0.0363247 0.0188331 -0.0420162
-0.0241974 0.0414623 -0.0465111
-0.0147901 0.0194946 -0.0138171
-0.0172155 0.0193338 -0.0136681
-0.0182535 0.0289153 -0.0136158
-0.00541699 0.0282341 -0.0123825
-0.0178617 0.0191021 -0.0137373
-0.00574313 0.0694328 0.000452607
-0.0203407 0.0188986 -0.0152312
-0.0152744 0.0459481 0.0531439
-0.0290095 0.0642658 -0.0534459
-0.0247739 0.0183607 -0.0155098
-0.0258882 0.0183752 -0.0176397
-0.0261859 0.0183752 -0.0181552
-0.0358741 0.045577 0.0278643
-0.0347245 0.0282336 -0.0415445
-0.0136908 0.0693385 -0.0111131
-0.0264091 0.0183752 -0.0185419
0.0116701 0.0467361 0.00991321
-0.0265579 0.0183752 -0.0187996
-0.00703314 0.0465443 -0.0255817
-0.0713542 0.0483411 -0.034789
-0.00151282 0.046443 0.0103798
-0.0274507 0.0183462 -0.019946
0.00406249 0.0647304 -0.0105636
-0.00112501 0.0460919 0.0148514
-0.0275993 0.0183462 -0.0202033
-0.0162641 0.0683543 -0.0447702
-0.0281193 0.0183462 -0.0211041
-0.0282686 0.0183607 -0.0215626
-0.0307966 0.0183607 -0.0259413
-0.0122387 0.0488632 0.0556019
-0.0311268 0.0183389 -0.0262132
-0.0318719 0.033843 -0.0445037
-0.0314565 0.0183171 -0.0264843
-0.0318597 0.0184435 -0.0268827
-0.032826 0.0183575 -0.0280563
-0.0332166 0.0183921 -0.0285327
-0.033582 0.0183775 -0.0289657
-0.0618284 0.0479622 -0.0250899
-0.015599 0.038609 -0.0186183
-0.0338527 0.0183283 -0.0294346
-0.0346846 0.0183629 -0.0306755
-0.0349403 0.0183555 -0.0310185
-0.0343869 0.0208499 -0.0310932
-0.0352524 0.0183518 -0.031509
-0.0356382 0.0183482 -0.0321271
-0.011622 0.0465743 0.0106701
-0.0201571 0.0298447 -0.0160465
-0.0133732 0.0353756 -0.0169631
-0.0359386 0.0183629 -0.0328475
-0.0312755 0.0343951 -0.0440707
-0.0075497 0.0568237 -0.00927646
-0.0360861 0.0183629 -0.033103
-0.0361924 0.0184317 -0.0335538
-0.0362174 0.0183462 -0.0351304
-0.0378026 0.0216665 -0.038476
-0.0259407 0.0429206 -0.0315305
-0.00135743 0.0460919 0.0144489
-0.0357669 0.0187732 -0.03815
-0.00983484 0.0332758 -0.0148344
-0.0357028 0.0188539 -0.0391391
-0.0237588 0.0312994 -0.0224515
-0.0356125 0.0187387 -0.0394826
-0.0360421 0.0188114 -0.0412267
-0.0502513 0.0487626 -0.0510379
-0.0365208 0.0188404 -0.0424558
-0.00618375 0.0459964 0.0583895
-0.0356457 0.0192933 -0.04504
-0.0353788 0.0192329 -0.0458778
-0.033915 0.0195964 -0.0483424
-0.033621 0.0196981 -0.0492333
-0.0203475 0.0368096 -0.0265429
-0.0120549 0.064625 -0.0025796
-0.017323 0.0556591 -0.0190043
-0.0331025 0.0198871 -0.0509352
-0.0343815 0.0258317 -0.0369506
0.00473617 0.0221002 -0.0109967
-0.0675161 0.0502032 -0.0225414
-0.0338078 0.0638836 -0.0316234
-0.00733959 0.0461272 0.0574875
-0.00791428 0.0201059 -0.00590793
-0.0103995 0.0200911 -0.0100124
-0.0289074 0.0193215 -0.0235691
-0.0174147 0.0614262 -0.0113631
-0.010641 0.0200763 -0.0102307
0.00497146 0.0553368 -0.00378917
-0.0121682 0.0199434 -0.0110759
-0.0155759 0.0417129 -0.0221782
-0.0122656 0.0268129 -0.0115945
-0.0111246 0.0206706 -0.0104684
-0.0122857 0.0199655 -0.0115795
-0.0161744 0.0197673 -0.0135147
-0.0187151 0.0193672 -0.0146156
-0.0205053 0.0455197 -0.0535161
-0.0192568 0.0193377 -0.0151538
-0.0196435 0.0193081 -0.0154235
-0.0219051 0.0429263 -0.0265407
-0.0200302 0.0192638 -0.0154934
-0.0210338 0.0191308 -0.0154315
-0.019249 0.0378791 -0.0254402
-0.0230318 0.0188354 -0.0148922
-0.0244022 0.0186581 -0.0148659
-0.0246275 0.0186433 -0.0150561
-0.0347365 0.0189416 -0.0306153
-0.0255364 0.0461278 0.0541697
-0.0252011 0.0496986 -0.0455495
-0.0344573 0.022578 -0.0328818
-0.0252929 0.0188217 -0.0166086
-0.0268556 0.0188217 -0.0193152
-0.0271533 0.0188068 -0.0196309
-0.0255699 0.0441419 -0.0325884
-0.0274136 0.0187994 -0.0199816
-0.035841 0.0198576 -0.033545
-0.0671632 0.0511869 -0.0235301
-0.0191992 0.0559634 -0.012654
-0.0275993 0.0187919 -0.0202033
-0.0225708 0.0423245 -0.0258937
0.00262588 0.0477752 -0.0100518
-0.00668689 0.0455407 0.052818
-0.0278406 0.0187882 -0.0205714
-0.0199753 0.0476484 -0.0127982
-0.0281193 0.0187919 -0.0211041
-0.0301442 0.0343014 -0.0389112
-0.0282686 0.0188068 -0.0215626
-0.0284549 0.0188143 -0.0219855
-0.0571442 0.0481768 -0.0357766
-0.0286061 0.0188441 -0.0226472
-0.0288947 0.0188216 -0.0235137
-0.0126377 0.0291201 -0.00858925
-0.0233672 0.048226 -0.0209731
-0.0294659 0.0188664 -0.0244365
-0.0307016 0.0188699 -0.0256268
-0.0417537 0.0499543 -0.0460195
-0.0312161 0.0187658 -0.0261179
-0.0351222 0.0184956 -0.0312335
-0.0361789 0.0187172 -0.0360637
-0.0361427 0.0189406 -0.0370011
-0.0292058 0.0193215 -0.024086
-0.0359586 0.0188649 -0.0376821
-0.0272595 0.0284077 -0.0246149
-0.000749536 0.0489087 -0.0102982
-0.0359185 0.0193242 -0.0410794
-0.0689267 0.047827 -0.0265179
-0.0211138 0.0458598 -0.0149701
-0.0299478 0.0309999 -0.0306711
-0.0360421 0.0191161 -0.0412267
-0.036063 0.0192982 -0.0416629
-0.00887545 0.0522803 0.0583272
-0.035914 0.0193524 -0.0442049
-0.0338861 0.0198843 -0.0478924
-0.0300416 0.0348114 -0.0390336
-0.00730289 0.0458461 0.056951
-0.00549631 0.0278418 -0.0119199
-0.0328317 0.0203644 -0.0525662
-0.0287947 0.0468861 0.0533262
-0.00863806 0.0204113 -0.00696155
-0.00871301 0.0204414 -0.00749136
-0.031043 0.0271352 -0.027768
-0.00975537 0.0204414 -0.00929679
-0.00991573 0.0204414 -0.00957454
-0.0112058 0.0203363 -0.010409
-0.0116072 0.0203063 -0.0107042
-0.0207978 0.0565921 -0.0176229
-0.0165631 0.0267448 -0.015188
-0.0120874 0.0202763 -0.011136
-0.0126433 0.0202913 -0.0122989
-0.0128816 0.0203063 -0.0129116
-0.0132403 0.0202838 -0.013233
-0.0570733 0.0491101 -0.0398539
-0.0236829 0.060734 -0.04962
-0.0173119 0.019811 -0.013985
-0.0181711 0.019721 -0.0142733
-0.0332165 0.0259024 -0.0341325
-0.0276138 0.0414442 -0.0350285
-0.0675068 0.0488309 -0.0231252
-0.018267 0.0198871 -0.0145894
-0.0256845 0.0403361 -0.0326868
0.00475066 0.0642017 -0.0101716
-0.0190239 0.0196759 -0.0151503
-0.0193332 0.0196609 -0.0154861
-0.0225267 0.0355994 -0.0272173
-0.0275905 0.0464963 0.0537119
-0.00680622 0.0464142 0.0084113
-0.019603 0.0198229 -0.0160534
-0.0309417 0.0328266 -0.0397927
-0.0217244 0.0193608 -0.0156278
-0.0122015 0.0518609 -0.0126337
-0.0224155 0.0192557 -0.0154248
-0.0112294 0.0648134 -0.00658327
-0.00076673 0.0453712 0.052972
-0.0260713 0.0380973 -0.0331568
-0.026483 0.0189855 -0.0188699
-0.0142393 0.0569874 -0.0124632
-0.0290184 0.0190156 -0.0236613
-0.00158892 0.0488082 -0.0215521
-0.0729505 0.0469775 -0.0215539
-0.0295259 0.0312985 -0.0517403
-0.0318953 0.0188805 -0.0268442
-0.0322237 0.018858 -0.027113
-0.026041 0.0675953 -0.0217043
-0.032481 0.0188505 -0.0274587
-0.0237667 0.040375 -0.0310319
-0.0343765 0.0479657 -0.0534417
-0.0326288 0.0188505 -0.0277148
-0.0328506 0.0188505 -0.028099
-0.00779049 0.0458862 0.0508731
0.0196404 0.0454883 0.0489182
-0.0334382 0.0188355 -0.0289167
-0.0338773 0.0188205 -0.0294772
-0.0252967 0.0479919 -0.0555151
-0.0313755 0.029408 -0.032544
0.0210533 0.0452745 0.0470655
-0.0341683 0.0188054 -0.0297811
-0.0416248 0.0459351 0.0303536
-0.0353605 0.018934 -0.0315962
-0.0356724 0.0189303 -0.0320864
-0.0358593 0.0189378 -0.0325101
-0.0341685 0.0243157 -0.0349816
-0.0143947 0.0305697 -0.0133322
-0.025572 0.0524419 -0.0502921
-0.0359386 0.0188054 -0.0328475
-0.0360861 0.0188054 -0.033103
-0.0261981 0.0433318 -0.0325764
-0.0362057 0.018828 -0.0336102
-0.0363259 0.0188505 -0.0341183
-0.00762972 0.0324573 -0.0124151
-0.0359756 0.0191957 -0.0381116
-0.0162949 0.0328795 -0.0174235
-0.0359598 0.019384 -0.0385843
-0.0279857 0.0668736 -0.0234726
-0.00375736 0.0533959 -0.00690794
-0.00791428 0.020907 -0.00590793
-0.00837714 0.0208956 -0.00655963
-0.0113358 0.0553305 0.0544658
-0.00895832 0.0208917 -0.00751625
-0.0624708 0.0476129 -0.0348026
0.0228766 0.0448658 0.0469234
-0.00919625 0.020907 -0.00812835
-0.0285541 0.0218715 -0.0231072
-0.0397011 0.0479538 -0.0701643
-0.00967519 0.0207621 -0.00915791
-0.0101185 0.0207392 -0.00962568
-0.00140882 0.0467752 0.00495986
-0.0107224 0.0207011 -0.0101717
-0.0113093 0.0209042 -0.011055
-0.0237503 0.0389307 -0.0305366
-0.0124037 0.0206249 -0.0120839
-0.0126427 0.0206249 -0.0124978
-0.00749247 0.0247192 -0.00657732
0.00169737 0.0321435 -0.0146601
-0.0201514 0.0418525 -0.0227033
-0.0367341 0.0488435 -0.0644253
-0.024996 0.0448572 -0.0320943
-0.0128013 0.0208631 -0.0131059
-0.0130409 0.0206249 -0.0131875
0.0165209 0.0453214 0.0498151
-0.01332 0.0207612 -0.0133709
-0.0187905 0.0457169 0.0530539
-0.0150282 0.0203962 -0.0136296
-0.0397894 0.0461616 0.0364328
-0.0157397 0.0203047 -0.0136619
-0.0345498 0.057053 -0.049442
0.000671581 0.0471751 -0.0184368
-0.0171937 0.0203004 -0.0140804
-0.0151446 0.045672 -0.0238312
-0.0183241 0.0200609 -0.0149383
-0.0253663 0.0407113 -0.0389357
-0.0188672 0.0200304 -0.0154791
-0.00865758 0.051895 0.0583046
-0.0216452 0.0197103 -0.0160906
-0.0222589 0.0196188 -0.0159536
-0.0408129 0.04642 0.0394701
-0.0238619 0.0193901 -0.01573
-0.024241 0.0193444 -0.0157866
-0.0165932 0.0454452 0.0238598
-0.0189492 0.0324399 -0.018421
-0.024732 0.019291 -0.015937
-0.0180111 0.0258727 -0.0167961
-0.0622941 0.0480178 -0.0394966
-0.0250697 0.0192682 -0.0162219
-0.0245618 0.0571562 -0.0485423
-0.0264081 0.0192987 -0.0189402
0.0268207 0.0452276 0.0434548
-0.00987204 0.0248166 -0.00999888
-0.0265572 0.0192987 -0.0191983
-0.0628171 0.0481148 -0.0284024
-0.0268802 0.0193827 -0.0195578
-0.0272276 0.019417 -0.0199596
-0.0277666 0.0193978 -0.0206432
-0.0281195 0.0193419 -0.0211711
-0.0438516 0.0471929 0.0354466
-0.0123821 0.0659008 -0.00704646
-0.0282318 0.0194093 -0.0215989
-0.0284366 0.0194132 -0.0220036
-0.0294659 0.0193139 -0.0244365
-0.0402735 0.0463174 0.0385109
0.0282444 0.0442671 0.0435207
-0.0086865 0.0538895 0.0614746
-0.0197956 0.0585742 -0.0164871
-0.0298365 0.0192987 -0.0248783
-0.0271257 0.0376125 -0.0337831
-0.0308682 0.0193863 -0.0258653
-0.031234 0.0193556 -0.0260988
-0.0296963 0.0530006 -0.0320356
-0.0318953 0.0193249 -0.0268442
-0.032481 0.0192941 -0.0274587
0.0031783 0.0476249 -0.012495
-0.0325935 0.0193018 -0.0277537
-0.0328155 0.0193018 -0.028138
-0.033164 0.0192903 -0.0285916
0.0298744 0.0442484 0.0409439
-0.0167227 0.0219224 -0.0140646
-0.0334032 0.0192865 -0.0289561
-0.033551 0.0192865 -0.0292121
-0.0344822 0.0229484 -0.0337249
-0.0337902 0.0192826 -0.0295763
-0.0118903 0.0460941 -0.00739455
-0.0341683 0.0191005 -0.0297811
-0.012961 0.0522055 -0.013249
-0.0284218 0.0287838 -0.0259281
-0.0345326 0.0190853 -0.0302122
-0.0359425 0.0193075 -0.0329875
-0.0276193 0.0297672 -0.025638
-0.0360861 0.0191005 -0.033103
-0.0151141 0.0455057 0.0220216
-0.0362713 0.0193403 -0.0346237
-0.0363259 0.0193572 -0.0355851
-0.0360423 0.0194816 -0.038027
-0.0357642 0.0196493 -0.0397454
-0.0304241 0.0335288 -0.039496
-0.0357374 0.0198779 -0.0406989
-0.0353576 0.0482568 -0.0478411
0.0273766 0.0447358 0.0454177
0.00513679 0.0558898 -0.00190281
-0.0222478 0.0478043 -0.0226344
-0.0359104 0.0199086 -0.0413986
-0.036063 0.0199086 -0.0416629
-0.0326193 0.0208535 -0.0500982
-0.0279005 0.02127 -0.0219251
-0.00767065 0.0210828 -0.00568595
-0.00584821 0.0465411 0.0176706
-0.00951303 0.0210983 -0.00907705
0.00703088 0.0460983 0.0139778
-0.00963105 0.0212822 -0.00958147
-0.00999447 0.0210983 -0.00991093
-0.0632394 0.0481087 -0.0351339
-0.0162912 0.0461484 -0.0228172
-0.0103968 0.0210828 -0.0104078
-0.0108798 0.0210518 -0.0108444
-0.030317 0.0198713 -0.0254105
-0.0119222 0.0210054 -0.0120498
-0.0456081 0.0472053 0.0320044
-0.0122019 0.0209976 -0.0124344
-0.0271893 0.0387032 -0.0462932
-0.00772741 0.0560724 0.0602158
-0.0260527 0.0476559 -0.0527246
-0.0136785 0.0208816 -0.0134918
-0.0265517 0.0427662 -0.0375888
-0.0179669 0.0348588 -0.0209197
-0.0199536 0.0681012 -0.0485606
-0.0149488 0.0207268 -0.0136921
-0.0153443 0.0208376 -0.013777
-0.0181692 0.0203708 -0.0146699
-0.0030753 0.0470176 -0.0239266
-0.0289281 0.034902 -0.0315049
-0.0187115 0.0203708 -0.0156092
-0.0132944 0.0395954 -0.0170266
-0.0189439 0.0203708 -0.0160118
-0.0190988 0.0203708 -0.0162802
-0.0323278 0.0338807 -0.0455934
-0.0544002 0.0466662 0.015476
-0.0193313 0.0203553 -0.0164828
-0.0266531 0.0334057 -0.0278978
-0.0222951 0.035626 -0.0270161
-0.0040031 0.0481822 -0.00773355
-0.023326 0.019798 -0.0162018
-0.0238588 0.0197206 -0.0161246
-0.0243141 0.0196587 -0.0161132
-0.0233237 0.0201306 -0.0165978
-0.0249175 0.0197459 -0.0163584
-0.0255882 0.0197459 -0.0175202
-0.00418162 0.0481673 -0.00604276
-0.0263144 0.01984 -0.0190279
-0.0265572 0.0195968 -0.0191983
-0.026731 0.0198008 -0.0195661
-0.0328123 0.0628233 -0.0508326
-0.0279712 0.0195504 -0.0210475
-0.0288947 0.0198164 -0.0235137
-0.0296512 0.0197537 -0.0246574
-0.0330396 0.0318338 -0.0456263
-0.0316685 0.026362 -0.0300514
-0.0298365 0.0197459 -0.0248783
-0.0342926 0.0194007 -0.0300632
-0.0346846 0.0193956 -0.0306755
-0.0349748 0.0193801 -0.0309781
-0.0357173 0.0193956 -0.0324642
-0.0391228 0.0459661 0.043404
-0.0132063 0.0465224 -0.0158739
-0.0131204 0.0217561 -0.0135251
-0.0361789 0.0196123 -0.0360637
-0.0359756 0.019798 -0.0381116
-0.0537987 0.0465658 0.016518
-0.00120688 0.0691794 0.00300963
-0.0293531 0.0474271 -0.055041
-0.00767065 0.0214035 -0.00568595
-0.0260404 0.0488343 -0.0497032
-0.00815768 0.0213721 -0.0061295
0.0276847 0.0458915 0.0418513
-0.00839787 0.0213721 -0.00654552
-0.00871813 0.0213721 -0.00710022
0.0047988 0.0562925 -0.00368823
-0.00907496 0.0213956 -0.00801828
-0.0202805 0.0330902 -0.0209268
-0.00991159 0.0214507 -0.0101674
-0.0112397 0.02138 -0.0115677
-0.0119211 0.0213564 -0.0124479
-0.0131204 0.0212778 -0.0135251
-0.0143937 0.0211207 -0.0137305
-0.0147901 0.0210735 -0.0138171
-0.016133 0.0209007 -0.0139433
-0.018244 0.023421 -0.0159995
-0.0172323 0.0207749 -0.0142471
0.0137084 0.0450922 0.0513437
-0.0177271 0.0208313 -0.0145042
-0.0250605 0.0468668 -0.0356061
-0.0180125 0.0208673 -0.0147986
-0.0182715 0.0208051 -0.0151139
-0.0189048 0.0208752 -0.0164441
-0.0241211 0.0464886 -0.0296457
-0.0317811 0.0347588 -0.0465464
-0.0193057 0.0209191 -0.0170384
-0.019757 0.0208119 -0.0171201
-0.0239325 0.0200363 -0.0164523
-0.0259597 0.0199263 -0.0185635
0.00589986 0.0468917 -0.00758115
-0.0275256 0.0198792 -0.0206757
-0.0398502 0.0484783 -0.0696227
-0.0283815 0.0198713 -0.0220583
-0.0300576 0.0198792 -0.0250613
-0.0383145 0.0238595 -0.0373626
-0.0306479 0.0198478 -0.0256837
-0.0308682 0.0198321 -0.0258653
-0.0672336 0.0484036 -0.024077
-0.0526921 0.0483745 -0.0591654
-0.0311268 0.0198242 -0.0262132
-0.0316049 0.0198006 -0.0267412
-0.0205684 0.0255805 -0.0182256
-0.0164906 0.0393642 -0.0209626
-0.0324877 0.0197692 -0.0278704
-0.0328229 0.0197771 -0.0285508
-0.0300714 0.034823 -0.0403852
-0.0331192 0.0199253 -0.0290642
-0.0333415 0.0199253 -0.0294492
0.00914044 0.045752 0.0510317
-0.0343741 0.0199191 -0.0305376
-0.00923719 0.0459652 0.0165008
-0.0224792 0.0422293 -0.0251352
-0.0347648 0.0199086 -0.031081
-0.0331089 0.0228485 -0.0291464
-0.035106 0.0197996 -0.0315387
-0.0356491 0.0197063 -0.032546
-0.0359071 0.0198006 -0.0341929
-0.037753 0.0253355 -0.0375501
-0.0261483 0.0409141 -0.0310902
-0.0359878 0.0198163 -0.0345328
-0.0258745 0.0445739 -0.033816
-0.0359338 0.0198635 -0.0350392
-0.00719276 0.0459761 0.0135417
-0.0360153 0.0198792 -0.0353803
0.008965 0.0466082 -0.000472166
-0.0359852 0.0199735 -0.0365282
-0.0359586 0.0200678 -0.0376821
-0.0357374 0.0203349 -0.0406989
-0.0240821 0.0288669 -0.0205114
-0.0361944 0.0203349 -0.0414906
-0.0362156 0.0203664 -0.0419272
-0.00767065 0.0218846 -0.00568595
-0.019834 0.0447898 -0.0285534
-0.00813202 0.0219005 -0.0060184
-0.00842654 0.0217884 -0.00646185
-0.0342905 0.0635054 -0.050793
-0.0628273 0.0480845 -0.03962
-0.00895832 0.0216924 -0.00751625
-0.0271716 0.0404371 -0.0571292
-0.00912007 0.0218951 -0.00766308
-0.0707538 0.0481414 -0.0347491
-0.00919625 0.0218686 -0.00812835
-0.00930037 0.0219435 -0.00857537
-0.00942794 0.0217881 -0.00952967
0.0224587 0.0460812 0.0446997
-0.00958877 0.0217881 -0.00980825
-0.0254816 0.044694 -0.0397354
0.0122701 0.0448539 0.0534524
-0.0194045 0.0435002 -0.0238096
-0.0103531 0.0217801 -0.0110321
-0.0107556 0.0217641 -0.0115292
-0.0271562 0.032393 -0.027236
-0.0112248 0.0218473 -0.012042
-0.014602 0.0368908 -0.0171914
-0.0122609 0.0218485 -0.0131865
-0.0182669 0.0471708 -0.0122392
-0.012721 0.0218043 -0.0134335
0.000691163 0.0473245 -0.00440288
-0.0147901 0.0213893 -0.0138171
0.0261955 0.0461619 0.042772
-0.015265 0.0213255 -0.0138397
-0.0161852 0.0214226 -0.0140336
-0.0166439 0.0213142 -0.014128
-0.0174665 0.0210703 -0.0144528
0.0120359 0.046541 0.00304682
-0.0203359 0.0209107 -0.0174227
-0.030799 0.0324122 -0.0374454
-0.0210282 0.0208151 -0.0174219
-0.0233219 0.0204642 -0.0169947
-0.0180942 0.0367984 -0.0237401
-0.0247638 0.0203901 -0.0166923
-0.0250666 0.020193 -0.0166165
-0.0202186 0.0468737 -0.0220863
-0.0309435 0.0318126 -0.0365956
-0.0257734 0.0203662 -0.0181409
-0.0259597 0.0203742 -0.0185635
-0.0261649 0.0203783 -0.0189689
-0.0264075 0.0204348 -0.0194725
-0.0653077 0.0483458 -0.0322161
-0.0267436 0.0203823 -0.0200212
-0.0389357 0.0460908 0.0443613
-0.0243854 0.0685753 -0.0538368
-0.0270795 0.0203298 -0.0205698
-0.0280478 0.020193 -0.0217801
-0.0388459 0.0456944 0.0434168
-0.00910079 0.050744 0.059237
-0.0285446 0.0202924 -0.0226407
-0.0293935 0.0203742 -0.024511
-0.0295789 0.0203663 -0.0247322
-0.00742724 0.0456255 0.0515357
-0.030263 0.0203302 -0.0254671
-0.030725 0.0203844 -0.0260172
-0.0316999 0.0201836 -0.0270558
-0.017777 0.0307368 -0.0151906
-0.025571 0.0478962 -0.0492903
-0.0321241 0.0202456 -0.0276405
-0.0327175 0.0202456 -0.0286684
-0.0354386 0.0200335 -0.0325815
-0.0356023 0.0203182 -0.034565
-0.0356545 0.0203032 -0.0350887
-0.0171985 0.0334014 -0.0180888
-0.0357048 0.0203823 -0.0355425
-0.0358834 0.0203684 -0.037552
-0.00898019 0.0511865 0.0594459
-0.0360876 0.0205918 -0.0407056
-0.036478 0.0206077 -0.0415818
-0.0364337 0.0206556 -0.042105
-0.0366957 0.0207034 -0.0431588
-0.0231565 0.0320612 -0.0226083
-0.0276609 0.0487094 -0.0370101
0.0209202 0.0454225 0.0478348
-0.0367185 0.0207353 -0.0435982
-0.00934908 0.0222542 -0.00919308
0.00100482 0.0759043 0.00234041
-0.00956972 0.0222583 -0.00962524
-0.00974961 0.0222706 -0.0100868
-0.00990942 0.0222869 -0.0105636
-0.0103531 0.0222624 -0.0110321
-0.0487217 0.0492754 -0.0411884
-0.0505738 0.0481805 -0.0444964
-0.0107151 0.0222542 -0.0115592
-0.0109562 0.0222542 -0.0119768
-0.0310551 0.0537969 -0.0337891
-0.0135987 0.0218508 -0.0135537
-0.0149091 0.0218385 -0.0137234
-0.015265 0.0216403 -0.0138397
-0.0493851 0.0485675 -0.0471375
-0.0156995 0.0217407 -0.0138923
0.0311387 0.0447965 0.0395338
-0.0168503 0.055741 -0.0125856
-0.02233 0.0258198 -0.0174767
-0.0171536 0.0214137 -0.0143109
0.00574523 0.0552989 -0.00224897
-0.0365255 0.0227028 -0.037864
-0.0273572 0.0270581 -0.0234841
-0.0629952 0.0485975 -0.045511
-0.0187108 0.0213814 -0.016608
-0.0431428 0.0461524 0.0300745
-0.0281736 0.0514761 -0.0407981
-0.0188663 0.0213814 -0.0168774
-0.0197195 0.0213328 -0.0177552
-0.0241566 0.020653 -0.0170405
-0.0324485 0.0320779 -0.0440025
-0.0221772 0.0288892 -0.0174122
-0.0254381 0.0205073 -0.0174601
-0.0269304 0.0205397 -0.0204449
0.000606572 0.0452453 0.0546506
-0.0279741 0.0205073 -0.0218526
-0.0314626 0.0204264 -0.0268948
-0.0332367 0.020394 -0.0295677
-0.025968 0.0411393 -0.0543779
-0.0332204 0.0309541 -0.0411394
-0.0333851 0.020394 -0.0298247
-0.0341077 0.0203293 -0.0302762
-0.0343294 0.0203293 -0.0306604
-0.0346252 0.0203293 -0.0311727
0.00284428 0.047847 -0.0122735
-0.00784331 0.0462066 0.017615
-0.0169581 0.0360507 -0.0209724
-0.0223284 0.0329035 -0.0229739
-0.0352621 0.0203536 -0.0325758
-0.0354809 0.0204426 -0.0340548
-0.0518948 0.0473599 -0.0400845
-0.0357862 0.0208237 -0.0380502
-0.0359446 0.0207825 -0.0390579
-0.0369373 0.0207987 -0.0409772
0.0298252 0.0455095 0.0404588
-0.0371091 0.0208311 -0.0416749
-0.0372927 0.0208796 -0.0425929
0.00395617 0.0304936 -0.0117477
0.000948855 0.0480205 -0.00815652
-0.00840084 0.0223164 -0.00635067
-0.00856085 0.0223164 -0.00662782
-0.0111976 0.0223986 -0.0121949
-0.0218641 0.0364742 -0.0278698
-0.0113582 0.0223986 -0.012473
-0.0118401 0.0223657 -0.0129076
-0.0657233 0.0503802 -0.035686
-0.0448269 0.0488431 -0.0464424
-0.012281 0.0223247 -0.0131713
-0.012761 0.022435 -0.0134027
-0.0205492 0.043146 -0.0235923
-0.000488291 0.0484004 -0.00884573
-0.0221759 0.0367649 -0.0282099
-0.01328 0.0223605 -0.0134018
-0.03513 0.0234579 -0.0371468
-0.044058 0.0468514 0.0348893
-0.0169457 0.045738 0.0244493
-0.0136784 0.0223109 -0.0134918
-0.0140761 0.0222613 -0.0135806
-0.0153443 0.0219388 -0.013777
-0.0171929 0.0218727 -0.014279
-0.0176748 0.0218777 -0.014547
-0.035942 0.0254406 -0.0372534
-0.0180125 0.0217984 -0.0147986
-0.0181677 0.0217984 -0.0150674
-0.0184775 0.0218315 -0.016004
-0.00622434 0.0455255 0.0548858
-0.0186136 0.0218521 -0.0164897
-0.0491457 0.0474797 -0.0529229
-0.019154 0.0218567 -0.018109
-0.0197227 0.0217089 -0.0185607
-0.0206465 0.0215775 -0.0185607
-0.0245348 0.0209042 -0.0170955
-0.0252143 0.0208057 -0.0170724
-0.0299866 0.0655645 -0.0521382
-0.0257734 0.0208139 -0.0181409
-0.0259597 0.0208221 -0.0185635
-0.0172835 0.0474295 0.0253142
-0.0261462 0.0208303 -0.0189865
-0.0264075 0.0208385 -0.0195391
-0.0178611 0.0556013 -0.0181363
-0.026669 0.0208467 -0.0200921
-0.0178555 0.0233456 -0.01506
-0.027304 0.0208385 -0.0210918
-0.0279005 0.0208221 -0.0219251
-0.0281233 0.0208057 -0.022111
-0.0283471 0.0208057 -0.0224986
-0.0133525 0.0468294 0.0554728
-0.0270741 0.0492377 -0.0406938
-0.0293935 0.0208221 -0.024511
-0.0298027 0.0208139 -0.0251199
-0.0301731 0.0207975 -0.0255614
-0.0305818 0.0207893 -0.0261692
-0.0308043 0.0209825 -0.026488
-0.000317387 0.0483332 -0.00814971
-0.0321488 0.0208681 -0.0280335
-0.0323893 0.020864 -0.0284
-0.0328438 0.0208007 -0.0290205
-0.0330884 0.0206907 -0.0293108
-0.0350146 0.0283448 -0.040247
-0.022637 0.0266099 -0.0168084
-0.0331639 0.0208941 -0.0295083
-0.0677199 0.0482399 -0.0360543
-0.0333851 0.020839 -0.0298247
-0.0140089 0.0687631 -0.0112641
-0.0336598 0.0208267 -0.0301504
-0.0406196 0.0495373 -0.0457552
-0.0342586 0.0207348 -0.0306711
-0.0346355 0.0208061 -0.0315904
-0.0256958 0.0259088 -0.022173
-0.0192546 0.0558679 -0.01735
-0.0350057 0.0206579 -0.0322317
-0.038754 0.0456562 0.0429761
-0.0350854 0.0206743 -0.0325697
-0.0351653 0.0206907 -0.0329082
-0.0129617 0.0266587 -0.0128503
-0.0175305 0.0681012 -0.0443637
-0.0351835 0.02074 -0.0335396
-0.0352026 0.0207893 -0.0341727
-0.035216 0.0208221 -0.0345959
-0.01919 0.0331649 -0.019638
-0.021278 0.0478725 -0.0520546
-0.0352853 0.020896 -0.0356159
-0.0254705 0.0408208 -0.0489161
0.000782885 0.0479612 -0.00604401
-0.0354089 0.0209206 -0.0361301
-0.0354244 0.0209535 -0.0365569
-0.0446045 0.0464539 0.0339427
-0.0493567 0.0478246 -0.0550883
-0.0360111 0.0210684 -0.038973
-0.0361745 0.0211911 -0.0395227
-0.0367472 0.0210356 -0.039848
-0.0371379 0.0209945 -0.0400247
-0.00808083 0.0227965 -0.00579638
-0.0283166 0.0333239 -0.0281459
-0.00920341 0.0227797 -0.00754078
-0.0303309 0.0707808 -0.044468
-0.0093609 0.0227965 -0.00801354
-0.00940859 0.0227878 -0.00862948
-0.00325311 0.0702914 0.00451544
-0.0031183 0.0450557 0.0555989
-0.00943105 0.0227197 -0.00913506
-0.00961062 0.0228929 -0.00959608
-0.0147101 0.0312483 -0.0142787
-0.0197569 0.0593497 -0.01712
-0.00979042 0.0229055 -0.0100575
0.0103086 0.046498 0.00255507
-0.010112 0.0229055 -0.0106145
-0.0127109 0.040224 -0.018116
0.0294025 0.0438653 0.0415266
-0.0422596 0.0462267 0.0344042
-0.0107151 0.0228971 -0.0115592
-0.0109562 0.0227364 -0.0119768
0.00607924 0.0468287 -0.00687045
-0.0118401 0.0226864 -0.0129076
-0.0238015 0.0402488 -0.0320255
-0.030602 0.033755 -0.0416042
-0.0669828 0.0518479 -0.0244176
-0.0122944 0.0227431 -0.0130945
-0.0147905 0.02232 -0.0136179
-0.0153052 0.0224024 -0.0136095
-0.0222553 0.0275839 -0.0167473
-0.0157659 0.0223958 -0.0137072
-0.0189472 0.0220868 -0.0180174
-0.0201106 0.0220035 -0.0190325
-0.0206483 0.0219202 -0.0189639
-0.015257 0.0693658 -0.0451258
-0.0236995 0.0268088 -0.0176488
-0.024003 0.0213206 -0.0175744
-0.0252889 0.021104 -0.0172017
-0.0255628 0.0212972 -0.0176094
-0.0289015 0.0353749 -0.0296588
0.031702 0.0444177 0.0384094
-0.0257546 0.0212658 -0.0181583
-0.0288322 0.0295049 -0.0263388
0.00783046 0.0466193 0.00816276
