ply
format ascii 1.0
comment Created by Open3D
element vertex 1694
property float x
property float y
property float z
end_header
-0.0686069 0.0444556 0.0405
-0.0690755 0.0444556 0.0405
-0.0713731 0.0445003 0.0404
-0.0715357 0.0444556 0.0405
-0.071956 0.0444258 0.0405667
-0.0725609 0.0443663 0.0407
-0.0730411 0.0442322 0.041
0.0408381 0.0438365 0.0424
0.0404416 0.043895 0.042525
0.0399723 0.0438838 0.04255
0.0380088 0.043644 0.0431667
-0.00899849 0.0435063 0.0475
0.0370466 0.0435671 0.043
0.0362098 0.0435221 0.0431
0.0359445 0.0434772 0.0432
0.0349514 0.0434337 0.0436333
0.0340934 0.0434109 0.0436
0.0329963 0.0434487 0.0436
0.0319224 0.0434323 0.0433
0.0184432 0.0437493 0.05815
0.031467 0.0434323 0.0433
0.0304423 0.0434323 0.0433
0.0294176 0.0434323 0.0433
0.0289621 0.0434323 0.0433
0.0285362 0.0434772 0.0432
0.0281943 0.0434772 0.0432
0.0274531 0.0435671 0.043
0.0265053 0.0436248 0.043125
0.0260624 0.0436473 0.043075
0.022975 0.0436741 0.0431
-0.0109556 0.0431596 0.0466
0.0213559 0.0434772 0.0432
0.0203702 0.0434334 0.04355
0.0200244 0.0434221 0.043575
0.0190105 0.043403 0.0435333
0.0184875 0.0434323 0.0433
-0.00340391 0.0439366 0.0596
0.0175048 0.0435371 0.0430667
0.0169287 0.043636 0.0431
-0.0503985 0.0447943 0.0595333
0.0165315 0.0436793 0.04275
0.015434 0.0438141 0.04245
0.0149746 0.0438141 0.04245
0.0145151 0.0438141 0.04245
0.0134746 0.0437916 0.0425
0.0128873 0.0437467 0.0426
0.0124223 0.0437242 0.04265
0.0119577 0.0437018 0.0427
0.0114994 0.0437018 0.0427
0.0110467 0.0437242 0.04265
0.0104898 0.0437916 0.0425
0.0098743 0.0438529 0.0425333
0.00776643 0.0439713 0.0421
0.00694534 0.0438815 0.0423
-0.031165 0.0444584 0.045
0.00647192 0.0437916 0.0425
0.00600052 0.0437018 0.0427
0.00553646 0.0436569 0.0428
0.00439874 0.0437242 0.04265
0.00303882 0.0439488 0.04215
0.00257804 0.0440638 0.04215
0.00207057 0.0442404 0.0420143
0.00177791 0.044106 0.0418
0.000506077 0.0442217 0.0418
-0.000457616 0.0441981 0.0417667
-0.00377192 0.044106 0.0418
-0.00401867 0.0442191 0.042125
-0.00852877 0.0422864 0.04644
-0.0583748 0.0449399 0.058
-0.0110428 0.0417861 0.04716
-0.0119745 0.0417787 0.047225
-0.0129558 0.0420175 0.04645
-0.0134001 0.0422186 0.0461667
-0.0139036 0.0422196 0.046
-0.014498 0.0423394 0.0457333
-0.0324626 0.0445475 0.0550667
0.00448416 0.0436733 0.0522
-0.0149351 0.0427006 0.045425
-0.0165122 0.0427807 0.045
-0.0169685 0.0428032 0.04495
-0.0189729 0.0427807 0.045
-0.00501269 0.0441104 0.0559
-0.0194203 0.0427807 0.045
-0.0229079 0.0429158 0.04445
-0.0235523 0.0432536 0.0443
-0.0240366 0.0432666 0.0442429
-0.0245541 0.0432266 0.04426
-0.00672233 0.0440302 0.0568
-0.0320249 0.0431859 0.0441
-0.0324311 0.043276 0.0439
-0.0326913 0.043321 0.0438
-0.0344512 0.0437699 0.0431286
-0.0365413 0.0437263 0.0429
-0.0369986 0.0437263 0.0429
-0.0379132 0.0437263 0.0429
-0.0379522 0.0437714 0.0428
-0.0390967 0.0436569 0.0428
-0.0400122 0.0436569 0.0428
-0.0430552 0.0441958 0.0416
-0.0439059 0.044353 0.04125
-0.0455534 0.0446001 0.0407
-0.0460443 0.0446225 0.04065
-0.0470239 0.0444428 0.04105
-0.0479996 0.0443755 0.0412
-0.0485812 0.0443755 0.0412
-0.0490465 0.0443755 0.0412
-0.0495118 0.0443755 0.0412
-0.0515012 0.0442857 0.0414
-0.0519129 0.0442408 0.0415
-0.0530456 0.0442184 0.04155
-0.0549463 0.0444428 0.04105
-0.0270751 0.0435499 0.054075
-0.0571003 0.0439488 0.04215
-0.0578773 0.0439264 0.0422
-0.0582264 0.0440162 0.042
-0.000459141 0.0440516 0.0556333
-0.0589834 0.044151 0.0417
-0.0595065 0.0443115 0.0416
-0.0602801 0.0445103 0.0409
-0.0608695 0.0446001 0.0407
-0.0619051 0.0444204 0.0411
-0.0627388 0.044106 0.0418
-0.0656026 0.044243 0.0416667
-0.0660557 0.0442879 0.0415667
-0.0664195 0.0443502 0.0416
-0.0674605 0.0443979 0.04115
-0.0680291 0.0444653 0.041
-0.0683787 0.0444653 0.041
-0.0685426 0.0445366 0.0411
-0.0690081 0.0445366 0.0411
-0.0704357 0.0445454 0.0411667
-0.0100448 0.0440317 0.05605
-0.0710597 0.0444653 0.041
-0.0723551 0.0443306 0.0413
-0.0725458 0.0442879 0.0415667
-0.0729831 0.0442184 0.04155
0.0410079 0.04419 0.0426333
0.0374625 0.0436149 0.0434
0.0369947 0.0435998 0.0434333
0.0324707 0.0434794 0.0437
0.0319857 0.0434341 0.0441333
0.0290339 0.0437478 0.05205
0.0313849 0.0433891 0.0439
0.0310778 0.0434343 0.0438
0.029039 0.0434343 0.0438
0.0270563 0.0436378 0.0436
-0.000539143 0.0467037 0.04095
0.0244332 0.0437052 0.0432
0.0235214 0.0437052 0.0432
0.021489 0.0436266 0.043625
0.0209691 0.0436063 0.04372
0.0205867 0.0435246 0.0436
0.0189743 0.0434492 0.0441
0.0185052 0.0434343 0.0438
0.0175221 0.0435246 0.0436
0.0154664 0.0438105 0.0429667
0.0139837 0.043818 0.04295
0.0130628 0.0437955 0.043
0.0124789 0.0437503 0.0431
0.0110071 0.0437955 0.043
0.0100985 0.043818 0.04295
0.00942756 0.0438858 0.0428
0.00817708 0.0439309 0.0427
0.00678835 0.0438406 0.0429
0.00655294 0.0437955 0.043
0.00596957 0.0437052 0.0432
0.00444321 0.0438053 0.04318
0.00395882 0.0438871 0.0431333
-0.000302965 0.0442921 0.0419
-0.00341717 0.0443509 0.042025
0.00698192 0.0437876 0.0464333
-0.00444291 0.0441115 0.0423
-0.004544 0.0442052 0.0426
-0.00496452 0.0440524 0.0426
-0.00546698 0.0440212 0.0425
-0.00899048 0.042348 0.04645
0.0199866 0.0438524 0.05908
-0.00952928 0.0422952 0.0465667
-0.0100622 0.0422235 0.046725
-0.0110241 0.0421217 0.04695
-0.0124952 0.0422799 0.0466
-0.013622 0.0427103 0.04565
-0.0139305 0.0427109 0.0455667
-0.0144225 0.0426667 0.0455
-0.01513 0.0428911 0.04525
-0.0210379 0.0432221 0.0447667
-0.0229139 0.0432647 0.044425
-0.0232575 0.0431634 0.0444
-0.0243831 0.0431634 0.0444
-0.0254953 0.0432533 0.04445
-0.0260443 0.0432307 0.0445
-0.026972 0.043276 0.0444
-0.0273847 0.0432384 0.0444
-0.027985 0.0432534 0.0444
-0.0285478 0.043276 0.0444
-0.00202654 0.0445618 0.0604
-0.0289981 0.043276 0.0444
-0.0300435 0.0432804 0.04444
-0.030558 0.0432534 0.04445
-0.0335406 0.0438082 0.043475
-0.0399614 0.0437621 0.0432
-0.0404895 0.04366 0.0433
-0.0410588 0.04366 0.0433
-0.0415076 0.0437729 0.04305
-0.0425026 0.0440906 0.0426
-0.0426774 0.0441567 0.0422
-0.0430889 0.0442244 0.04205
-0.0440043 0.0444501 0.04155
-0.0450914 0.0446082 0.0412
-0.0455567 0.0446082 0.0412
-0.0460219 0.0446082 0.0412
-0.046324 0.044563 0.0413
-0.0480549 0.0443373 0.0418
-0.0485668 0.0443824 0.0417
-0.0494928 0.0443824 0.0417
-0.0505986 0.0443373 0.0418
-0.0515339 0.044247 0.042
-0.0524652 0.0441567 0.0422
-0.0529258 0.0441567 0.0422
-0.0540948 0.0443599 0.04175
-0.0545249 0.0444276 0.0416
-0.0555111 0.0443824 0.0417
-0.0559482 0.0441793 0.04215
0.044557 0.0508069 0.0381
-0.056455 0.043946 0.0426667
-0.0574668 0.0439309 0.0427
-0.0578699 0.0439761 0.0426
-0.0581589 0.0440212 0.0425
-0.058974 0.0442019 0.0421
0.0184532 0.0436404 0.0458
-0.0604404 0.0445179 0.0414
-0.0610208 0.0445179 0.0414
-0.062253 0.0441567 0.0422
-0.0650497 0.0442943 0.04215
-0.00691306 0.044028 0.0536
-0.0655439 0.0443554 0.0421
-0.0669216 0.0444276 0.0416
-0.0699147 0.044563 0.0413
-0.0709282 0.0445516 0.0416667
-0.0710487 0.0444727 0.0415
-0.0466878 0.0444777 0.042
0.0374426 0.04363 0.0440333
0.0369292 0.0436154 0.0439
0.0355714 0.0436154 0.0439
0.0351189 0.0436154 0.0439
0.0345171 0.04357 0.044
0.0339342 0.0435473 0.04405
0.033439 0.0436149 0.0440667
0.0325277 0.0434793 0.0442
0.0303528 0.0434339 0.0443
0.0290208 0.0434642 0.0442333
0.0279539 0.043615 0.044025
0.0265609 0.0436835 0.04375
0.0254673 0.0437516 0.0436
0.0245465 0.0438421 0.04365
0.0240321 0.0438331 0.04362
0.0234727 0.0438512 0.04368
0.0229583 0.0438421 0.04365
0.0225162 0.0437516 0.0436
0.0199664 0.0436236 0.04418
0.018541 0.0434793 0.0442
0.017977 0.0434793 0.0442
0.0174402 0.0435473 0.04405
0.0169479 0.0436149 0.0440667
0.00147816 0.0436621 0.0506
0.016472 0.0436759 0.0437667
0.0159413 0.0437743 0.04355
0.0154951 0.043797 0.0435
0.0129754 0.0437289 0.04365
0.010939 0.0437516 0.0436
0.010485 0.0437516 0.0436
0.00890974 0.0438197 0.04345
0.0085732 0.0438423 0.0434
0.00813506 0.0439331 0.0432
0.00686352 0.0438197 0.04345
0.00650886 0.0438421 0.04365
0.0059449 0.0437516 0.0436
0.00461762 0.0438723 0.0436667
-0.0293991 0.0446488 0.059225
0.00346932 0.0440239 0.043
0.00256738 0.0443427 0.04255
0.00177881 0.0447069 0.04175
0.00143357 0.0447638 0.041625
0.00100916 0.0447366 0.0416
-0.000881381 0.0446841 0.0418
-0.00145949 0.0445685 0.0418
-0.0328498 0.04453 0.0551
-0.00203275 0.0446931 0.0420333
-0.00295654 0.0444777 0.042
-0.00590187 0.0440693 0.0429
-0.00625127 0.0441147 0.0428
-0.0117755 0.043234 0.0462
-0.00803764 0.0426623 0.046
-0.015513 0.0432549 0.045125
0.0270932 0.0447059 0.058075
-0.0160451 0.0432866 0.0451167
-0.0174815 0.0432686 0.04496
-0.0189679 0.0432167 0.045025
-0.0194203 0.0432281 0.045
-0.0199937 0.0432584 0.0449333
-0.0275636 0.0434339 0.0443
-0.0280143 0.0434339 0.0443
-0.0326913 0.0436608 0.0438
-0.0355472 0.0441988 0.0431167
-0.0360344 0.0442369 0.0430333
-0.0459231 0.0448486 0.0581667
-0.0374804 0.0442369 0.0430333
-0.0385147 0.0442446 0.0430167
-0.038976 0.0442065 0.0431
-0.0404649 0.0436782 0.04406
-0.0415636 0.0438197 0.04345
-0.00500166 0.0437662 0.0526333
-0.0420131 0.0439331 0.0432
-0.0423986 0.0440925 0.0431
-0.00553843 0.0440618 0.0445667
-0.043076 0.0443199 0.0426
-0.0439185 0.0444777 0.042
-0.0442394 0.0445685 0.0418
-0.0454726 0.0446442 0.0416333
-0.0464547 0.0445555 0.0421667
-0.0470339 0.0444777 0.042
-0.0504903 0.0443719 0.0422333
-0.0510588 0.0442659 0.0424667
-0.0515096 0.04416 0.0427
-0.0519678 0.04416 0.0427
0.0229424 0.0438017 0.04825
-0.0525046 0.0441298 0.0427667
-0.053567 0.0442508 0.0425
-0.0550573 0.0443416 0.0423
-0.0609867 0.0450492 0.0461
-0.0555192 0.0440924 0.0431
-0.0560607 0.0439558 0.04315
-0.0564877 0.0439331 0.0432
-0.0569435 0.0439331 0.0432
-0.0574291 0.0439558 0.04315
-0.0590773 0.0442508 0.0425
-0.0595741 0.0443643 0.04225
-0.0601266 0.0444324 0.0421
-0.0604723 0.0444324 0.0421
-0.0615277 0.0441147 0.0428
-0.0619856 0.0441147 0.0428
-0.0624432 0.0441147 0.0428
-0.0639808 0.0442281 0.04255
-0.0495177 0.0448204 0.05715
-0.0660052 0.0444324 0.0421
-0.0668804 0.0444777 0.042
-0.0689721 0.0446366 0.04165
-0.0700259 0.0446442 0.0416333
-0.0719573 0.0444777 0.042
0.0383602 0.0437961 0.044
0.0380546 0.04378 0.0442
0.0359867 0.0436592 0.0443
0.035012 0.043568 0.0445
0.0340177 0.0435908 0.04445
0.0329301 0.0436414 0.0446667
0.0317969 0.0434767 0.0447
0.029991 0.0434615 0.0447333
0.0284903 0.043568 0.0445
0.0279964 0.0436678 0.04465
0.0274517 0.0437049 0.0442
0.026916 0.0437505 0.0441
0.0264083 0.0437952 0.0441667
0.0249964 0.0439197 0.0441
0.0224765 0.0439041 0.04406
0.0219535 0.0438746 0.044075
0.0215337 0.0438256 0.0441
0.0194743 0.043672 0.0446
0.0184539 0.0436117 0.04465
0.0180048 0.0436117 0.04465
0.0175011 0.0436212 0.04458
0.0165107 0.0437049 0.0442
0.0154309 0.0438417 0.0439
0.0145258 0.0438417 0.0439
0.0140659 0.0438189 0.04395
0.0135852 0.0437277 0.04415
0.0124549 0.0438008 0.0576
0.0130096 0.0436897 0.0442333
0.012437 0.0436592 0.0443
0.0119863 0.0436592 0.0443
0.0104143 0.0436821 0.04425
0.00996852 0.0437049 0.0442
0.00951736 0.0437049 0.0442
0.00906617 0.0437049 0.0442
0.00795899 0.0438189 0.04395
0.00705416 0.0438189 0.04395
0.00626585 0.0438417 0.0439
0.00389573 0.0439101 0.04375
0.00333781 0.0440242 0.0435
0.000856415 0.0449822 0.0414
-0.00452073 0.0443207 0.0431
-0.00496921 0.0441383 0.04325
-0.00552637 0.0440394 0.0434667
-0.00609585 0.044047 0.04345
-0.00656758 0.0441611 0.0432
-0.0073805 0.0442523 0.043
-0.00756969 0.0440242 0.0435
-0.00856361 0.0427468 0.0463
-0.00943612 0.0427012 0.0464
-0.00997993 0.0426708 0.0464667
0.0014647 0.0441465 0.0591
-0.0105269 0.0426556 0.0465
-0.0109556 0.0426099 0.0466
-0.0122303 0.0428381 0.0461
-0.0128885 0.043568 0.0445
-0.0409012 0.0457801 0.0476
-0.0132405 0.0432486 0.0452
-0.0135467 0.0431574 0.0454
-0.0140293 0.0432715 0.04515
-0.0149588 0.0433817 0.045275
-0.0206942 0.0434311 0.0448
-0.0219954 0.0436416 0.0446667
-0.0224759 0.0436296 0.04466
-0.0229841 0.0436346 0.0446
-0.0240203 0.0436803 0.0445
-0.0245235 0.0437544 0.0445833
-0.0250059 0.0437467 0.0446
-0.0255194 0.0437147 0.0446
-0.0260125 0.0437392 0.0446167
-0.0269438 0.0437927 0.0445
-0.0274509 0.0436592 0.0443
-0.027789 0.0436592 0.0443
-0.0280966 0.0437569 0.04448
-0.028518 0.0437927 0.0445
0.0185192 0.0436989 0.0498
-0.0289574 0.0437661 0.04446
-0.0294329 0.0437032 0.04445
-0.0305364 0.0436886 0.0444
-0.00596812 0.0443336 0.0535333
-0.0310648 0.0437834 0.044275
-0.0345691 0.0441154 0.0433
-0.0400834 0.0437961 0.044
-0.0224883 0.0452221 0.0462
-0.0429467 0.0442977 0.04315
0.0135057 0.0437477 0.0577
-0.0439241 0.0444804 0.0425
-0.0442442 0.0445717 0.0423
-0.0446349 0.0446173 0.0422
-0.0451186 0.0446401 0.04215
-0.0173713 0.044084 0.0458
-0.0455562 0.0446173 0.0422
-0.0467749 0.0445717 0.0423
-0.0470718 0.044526 0.0424
-0.0475802 0.0445717 0.0423
0.0210345 0.0440374 0.0593
-0.0555126 0.0447842 0.05575
-0.0480403 0.0445717 0.0423
-0.0485005 0.0445717 0.0423
-0.0493057 0.0445717 0.0423
-0.0500715 0.0444348 0.0426
-0.0504267 0.0443435 0.0428
-0.0514729 0.0441611 0.0432
-0.0525855 0.0441383 0.04325
-0.0539422 0.0443129 0.0432
-0.0544351 0.0443069 0.04308
-0.0550436 0.0441915 0.0431333
0.00498441 0.0441917 0.0580571
-0.0565652 0.044069 0.04365
-0.0569353 0.0439786 0.0436
-0.0575027 0.0440919 0.0436
-0.059117 0.0442523 0.043
0.00156872 0.0470802 0.0404
-0.0596352 0.0442979 0.0429
-0.0604973 0.0441763 0.0431667
-0.0608697 0.0441154 0.0433
-0.0625775 0.0441154 0.0433
-0.0655059 0.0444804 0.0425
-0.0664936 0.0447098 0.0426
-0.0665606 0.0445717 0.0423
-0.0669742 0.0446173 0.0422
-0.0680104 0.0447323 0.0422
-0.0685059 0.0447551 0.04215
-0.0690021 0.044778 0.0421
-0.0694276 0.0447551 0.04215
-0.0699275 0.0447275 0.04216
-0.0704646 0.0446401 0.04215
-0.072059 0.0445814 0.04258
-0.0489868 0.0445227 0.045575
0.0410141 0.0445724 0.0428
0.0393756 0.044388 0.04345
0.039047 0.0442733 0.0437
0.0378759 0.0438362 0.04465
0.0359724 0.0435942 0.0449333
0.0350155 0.0435177 0.0451
-0.0584939 0.0462265 0.0510667
0.0349786 0.0434719 0.0452
0.0340099 0.0435177 0.0451
0.0319541 0.0436095 0.0449
-0.00258887 0.0443743 0.0604
0.0189234 0.043874 0.0566
0.0315683 0.0435407 0.04505
0.031072 0.0434719 0.0452
0.0299558 0.0434719 0.0452
0.0294825 0.0435615 0.0451667
0.02849 0.0436516 0.0451
0.0265788 0.0439052 0.0445
0.0244318 0.0439763 0.0441
0.0235286 0.0439763 0.0441
0.0214959 0.0438591 0.0446
0.0209677 0.0438158 0.04445
0.0204963 0.04377 0.04455
0.0200151 0.0437012 0.0447
0.0164245 0.0437012 0.0447
0.014435 0.0437929 0.0445
0.013978 0.04377 0.04455
0.0220118 0.0438795 0.0448
0.0130446 0.0436553 0.0448
0.0114813 0.0436783 0.04475
0.0110329 0.0436783 0.04475
0.0105898 0.0437012 0.0447
0.0100216 0.0436706 0.0447667
-0.0389579 0.0445644 0.05564
0.00946277 0.0436783 0.04475
0.00901406 0.0436783 0.04475
0.0085656 0.0436783 0.04475
0.0069954 0.0436783 0.04475
0.00655369 0.0437241 0.04465
0.00397273 0.0438477 0.044625
0.00354289 0.0439763 0.0441
0.00310412 0.0441597 0.0437
0.00266986 0.0447089 0.043
0.00245402 0.04471 0.0425
0.00193661 0.0452153 0.0415667
0.000973926 0.0452832 0.04125
4.37685e-05 0.0452144 0.0414
-0.000420039 0.0452731 0.041525
-0.00122699 0.0451006 0.0419
-0.00294217 0.0448363 0.042475
-0.00404005 0.044664 0.0427667
-0.00543802 0.0440671 0.044025
-0.00594184 0.0439763 0.0441
-0.00618053 0.044068 0.0439
-0.00901451 0.0431236 0.0462
0.0184953 0.0437731 0.0561667
-0.0105494 0.0429675 0.0463
-0.0109907 0.0429675 0.0463
-0.0170496 0.044751 0.0515
-0.0125177 0.0432885 0.0456
-0.01286 0.0437295 0.045125
-0.0135753 0.0434719 0.0452
-0.0169239 0.0436949 0.0452
-0.0174881 0.0437104 0.0451667
0.0454837 0.0551963 0.0357
-0.0184623 0.0436513 0.0451333
-0.018953 0.0436295 0.0451
-0.0195117 0.0436295 0.0451
-0.0205497 0.0436984 0.04495
-0.0210267 0.0437764 0.04512
-0.0211426 0.0436553 0.0448
-0.0307186 0.0438846 0.0443
-0.0330311 0.0441139 0.0438
-0.0345572 0.0442959 0.04365
-0.0313508 0.0451436 0.0466667
-0.0349899 0.044327 0.0435
-0.0390667 0.0443876 0.0435333
-0.0428362 0.0442973 0.0434
-0.0439725 0.0445266 0.0429
-0.0446359 0.0446183 0.0427
-0.0450258 0.0446641 0.0426
-0.0454533 0.0446336 0.0426667
-0.046602 0.0445266 0.0429
-0.0490143 0.0446412 0.04265
-0.0509954 0.0442811 0.0436
-0.0514316 0.0442658 0.0436333
-0.0524677 0.0442845 0.043675
-0.0529626 0.044319 0.0436
-0.0534581 0.0443534 0.043525
-0.0545234 0.0443527 0.04365
-0.0584939 0.0442959 0.04365
-0.0590095 0.044314 0.04366
-0.0599582 0.044175 0.0436667
-0.0604416 0.0441139 0.0438
-0.0605665 0.0442286 0.04414
0.00647034 0.0439263 0.0519
-0.0610237 0.0442655 0.04406
-0.0625292 0.0442615 0.043725
0.0244543 0.0434212 0.0557
-0.064599 0.0444807 0.043
-0.065563 0.0446921 0.04775
-0.0650755 0.0445724 0.0428
-0.0654525 0.0445953 0.04275
-0.0670441 0.0447787 0.0426
-0.067549 0.0448476 0.0425333
-0.0704844 0.0447787 0.0426
0.0410015 0.044777 0.0431
0.0399771 0.044726 0.04326
0.0388123 0.0443612 0.044
-0.00605753 0.0441128 0.0551333
0.0358503 0.0435337 0.04555
0.0353867 0.0435107 0.0456
0.0348867 0.0434416 0.04575
0.0344245 0.0434186 0.0458
0.0339808 0.0434186 0.0458
0.0325314 0.0435568 0.0455
0.0309408 0.0435107 0.0456
0.029988 0.0435799 0.04545
0.0294802 0.0436542 0.04565
-0.0416085 0.0444249 0.0509
0.0275436 0.0438759 0.04505
-0.00150468 0.0440598 0.0582
0.02545 0.0442347 0.0445167
0.0245356 0.0440954 0.044575
-0.0512081 0.0441026 0.0597
0.0241178 0.0440409 0.04445
0.0229325 0.0439256 0.0447
0.0214288 0.0438334 0.0449
0.0204898 0.0437412 0.0451
0.0199101 0.0436951 0.0452
-0.0676071 0.044892 0.0455
0.0194636 0.0436951 0.0452
0.0185707 0.0436951 0.0452
0.0180063 0.0436797 0.0452333
0.0154454 0.0436951 0.0452
0.0150067 0.0437181 0.04515
-0.0309553 0.0443606 0.058
0.0145678 0.0437412 0.0451
0.0140091 0.0437412 0.0451
0.0134293 0.0436721 0.04525
0.0130323 0.043631 0.0457
0.0120786 0.0436433 0.0456333
0.0109922 0.0437412 0.0451
0.0105453 0.0437412 0.0451
-0.0365251 0.0443887 0.0580667
0.00998312 0.0437258 0.0451333
-0.0595225 0.0451941 0.0580444
0.00941802 0.0436951 0.0452
0.00852063 0.0436721 0.04525
-0.00505389 0.0443507 0.0535
0.00804451 0.0436216 0.0456
-0.0224717 0.0440792 0.04562
0.00541684 0.0438334 0.0449
0.00496896 0.0438334 0.0449
0.00451864 0.0438103 0.04495
0.00309768 0.0442943 0.0439
0.00178968 0.0456784 0.04115
0.00132614 0.045631 0.041
-0.0379472 0.0457236 0.0440667
0.000976455 0.045631 0.041
0.00051 0.0456079 0.04105
-0.0060295 0.0440178 0.0445
-0.00996555 0.0431963 0.0466
-0.0104391 0.0431881 0.0463
-0.0113435 0.0432811 0.046575
-0.0115423 0.0431881 0.0463
-0.013604 0.0437873 0.045
-0.0147875 0.0437605 0.0453
-0.0155762 0.0436721 0.04525
-0.0160569 0.0437387 0.0452667
-0.0164687 0.0437835 0.04525
-0.0215228 0.0438528 0.0451
-0.0220237 0.0438489 0.04506
-0.0225404 0.0438759 0.04505
-0.0229876 0.0438759 0.04505
-0.0234943 0.0438844 0.04508
-0.0239936 0.0438759 0.04505
-0.0279915 0.0441059 0.0446333
-0.0290149 0.0442073 0.0447143
-0.0300922 0.0442426 0.0445
0.0219558 0.0441316 0.055575
-0.0305579 0.0442657 0.04445
-0.0309692 0.0442875 0.0445
-0.0334321 0.0442712 0.04395
-0.0340151 0.0442943 0.0439
-0.0360883 0.0444787 0.0435
-0.0365238 0.044569 0.04355
-0.0369972 0.0444787 0.0435
-0.0375294 0.0445709 0.0433
-0.0384601 0.0445939 0.04325
-0.0401133 0.0437873 0.045
-0.0414055 0.0439717 0.0446
-0.0416737 0.0440178 0.0445
-0.0460663 0.0450061 0.0592667
-0.0423908 0.044179 0.04415
-0.0440417 0.0444787 0.0435
-0.0460629 0.0444556 0.04355
0.0211035 0.0442557 0.056
-0.0465413 0.0444787 0.0435
-0.0645267 0.0449564 0.04345
-0.0468822 0.0444787 0.0435
-0.0475141 0.0445458 0.0436
-0.0485095 0.044617 0.0432
-0.0489655 0.044617 0.0432
-0.0496604 0.0445248 0.0434
-0.0500288 0.044448 0.0435667
-0.0509566 0.0443525 0.0441
-0.0515244 0.0443467 0.04408
-0.0520284 0.044368 0.0440667
-0.0539282 0.0443865 0.0437
-0.055977 0.0443264 0.044075
-0.0564936 0.0443467 0.04408
-0.0570231 0.0443496 0.044025
-0.0574901 0.0443612 0.044
-0.0579221 0.0443834 0.0440333
-0.0594966 0.0443216 0.0441667
-0.0615433 0.0443496 0.044025
-0.0619307 0.0443843 0.04395
-0.0645038 0.0446929 0.0432
-0.0654958 0.0448116 0.043025
-0.0679617 0.0448935 0.0426
-0.0684907 0.0449396 0.0425
-0.0694881 0.0449165 0.04255
-0.0725167 0.0448464 0.04295
-0.0727827 0.0447552 0.0429
0.0391197 0.0445669 0.0438
-0.0657989 0.0449532 0.0511
0.0373552 0.0438257 0.0454
0.0365063 0.0435886 0.04615
0.0360837 0.0435014 0.0461
0.00196694 0.0432888 0.0491
0.0356035 0.0434551 0.0462
0.035014 0.0434088 0.0463
0.0343154 0.0433624 0.0464
0.0329179 0.0434088 0.0463
0.0325112 0.0434551 0.0462
0.0315173 0.0434551 0.0462
0.0309485 0.0434319 0.04625
0.0300349 0.0435477 0.046
0.0288828 0.0437761 0.0456667
0.028192 0.0438905 0.0455
0.026544 0.044297 0.044625
0.0235067 0.0439647 0.0451
0.0230354 0.0439184 0.0452
0.020493 0.043733 0.0456
0.0195623 0.0436404 0.0458
0.0171222 0.0436404 0.0458
-0.0409214 0.0446291 0.05215
0.0164567 0.0436404 0.0458
0.0156637 0.0435941 0.0459
0.0150149 0.0436404 0.0458
0.0144833 0.0437099 0.04565
0.0135803 0.0436636 0.04575
0.0114941 0.0437485 0.0455667
0.0110395 0.0438208 0.04565
0.0105008 0.0437794 0.0455
0.0174698 0.0438028 0.05114
0.0100506 0.0437562 0.04555
0.00949285 0.0437485 0.0455667
0.00893369 0.043733 0.0456
0.00848466 0.0437099 0.04565
0.00449255 0.0437794 0.0455
0.00416315 0.0438257 0.0454
0.00372548 0.0439184 0.0452
0.00351333 0.0440573 0.0449
0.00308156 0.044289 0.0444
0.00245402 0.0451692 0.0425
0.00144562 0.0459568 0.0408
0.00109522 0.0459568 0.0408
0.000940807 0.0461745 0.0406667
-0.000421028 0.0458413 0.0413
-0.00248353 0.0453072 0.04245
-0.00339186 0.0450533 0.04275
-0.00523142 0.04415 0.0447
-0.00600103 0.0440342 0.04495
-0.00704014 0.0441532 0.0576667
-0.00645213 0.0440573 0.0449
-0.00858194 0.0433893 0.0465
-0.00897601 0.0433796 0.0466
-0.0120476 0.0436404 0.0458
-0.0129702 0.0441602 0.045
-0.0135063 0.044132 0.0449
-0.0135205 0.0442531 0.0448
-0.0156464 0.0438905 0.0455
-0.0158857 0.0438257 0.0454
-0.018378 0.0438224 0.0455667
-0.0189844 0.0437794 0.0455
-0.0195407 0.0437794 0.0455
-0.0209796 0.0439121 0.0455333
-0.0265231 0.044129 0.0450667
-0.032566 0.0442426 0.0445
-0.0330157 0.0442426 0.0445
-0.0345496 0.0443353 0.0443
-0.0352993 0.044428 0.0441
-0.0359891 0.0446691 0.0440667
-0.0369206 0.0446133 0.0437
-0.0380258 0.0447502 0.0436
-0.0385234 0.0447506 0.0435667
-0.0388884 0.0446596 0.0436
-0.0390673 0.0443317 0.04455
-0.0394422 0.044011 0.045
-0.0395477 0.0438672 0.04555
-0.040082 0.043807 0.0456
-0.0610412 0.045097 0.057
-0.0405552 0.0438379 0.0455333
-0.0414119 0.0439647 0.0451
-0.0443324 0.044428 0.0441
-0.0455745 0.044428 0.0441
-0.0460261 0.044428 0.0441
-0.0464777 0.044428 0.0441
-0.0468653 0.0444743 0.044
-0.0474935 0.0445407 0.0441
-0.0484858 0.0446133 0.0437
-0.050091 0.044428 0.0441
0.00143537 0.0441508 0.0586
-0.053082 0.0444743 0.044
-0.0539581 0.0444512 0.04405
-0.0600019 0.044355 0.0445
-0.0624418 0.0446094 0.0440333
-0.063469 0.0447381 0.043675
-0.0640056 0.0447962 0.04355
-0.0659015 0.0448912 0.0431
-0.0668831 0.0449376 0.043
-0.0666765 0.0449854 0.0502
-0.0675933 0.0450302 0.0428
-0.068051 0.0450302 0.0428
-0.0693529 0.0449839 0.0429
-0.0696241 0.0449376 0.043
-0.070081 0.0449376 0.043
-0.0704651 0.0448912 0.0431
-0.0709946 0.0449376 0.043
0.0410309 0.0450263 0.0433
0.0406893 0.0450263 0.0433
0.0403779 0.0449332 0.0435
0.040037 0.0449332 0.0435
0.0387314 0.0446072 0.0442
0.0379406 0.0443232 0.04505
0.037578 0.0440485 0.0454
0.0368577 0.0437225 0.0461
0.0364806 0.0436831 0.0465
0.0354984 0.0434121 0.0467667
0.0349334 0.0433661 0.0471
0.0344425 0.0433267 0.04695
0.0340042 0.0433267 0.04695
0.0334744 0.04335 0.0469
0.0303932 0.0434897 0.0466
0.0294345 0.0436992 0.04615
0.0290021 0.0438427 0.046
0.0244865 0.0442904 0.0452
0.0228896 0.0438622 0.0458
0.0225569 0.0438622 0.0458
0.021979 0.0438157 0.0459
0.0215129 0.0437691 0.046
0.0210478 0.0437225 0.0461
-0.027466 0.0438442 0.056125
0.0194585 0.0436294 0.0463
0.0190172 0.0436294 0.0463
-0.0119915 0.0436743 0.0541429
0.0185857 0.0436527 0.04625
0.0180243 0.0436294 0.0463
0.01601 0.0435518 0.0464667
0.0150295 0.0435828 0.0464
0.0135227 0.0436992 0.04615
-0.0315387 0.0447194 0.05995
0.0130597 0.0436294 0.0463
-0.00995396 0.0433823 0.0534
0.0119884 0.0437458 0.04605
0.0109345 0.0438999 0.046075
0.0104425 0.043868 0.046025
0.00999458 0.0438445 0.046075
0.0095472 0.0438212 0.046125
0.00900978 0.0437846 0.0459667
0.00845312 0.0437691 0.046
0.00800622 0.0437458 0.04605
0.00755967 0.0437225 0.0461
0.00701177 0.0437536 0.0460333
0.00646433 0.0437924 0.04595
0.00601208 0.0438328 0.0461
0.00600184 0.0444675 0.0445
0.00578301 0.0445141 0.0444
0.0030461 0.0440019 0.0455
0.00224724 0.0458644 0.0415
0.00194705 0.0461594 0.0410333
0.00144696 0.0462369 0.0407
8.3022e-05 0.0463617 0.0407667
-7.26173e-05 0.0460972 0.041
-0.000382884 0.0461904 0.0411333
-0.0314569 0.0443648 0.0587
-0.00157055 0.045712 0.042075
-0.00214006 0.0454453 0.0424
-0.00510573 0.044258 0.04495
-0.00823264 0.0436294 0.0463
-0.0084172 0.0435529 0.0467
-0.010051 0.0432986 0.0471667
-0.0122303 0.0437225 0.0461
-0.014029 0.0442764 0.04515
-0.0141931 0.0443278 0.0448
-0.0150074 0.0440441 0.0456
-0.0159676 0.044078 0.045575
-0.0170188 0.0440721 0.04554
-0.0185322 0.0438328 0.0461
-0.0190048 0.0437924 0.04595
-0.0195375 0.0438562 0.04605
0.00356615 0.0437798 0.04645
-0.0220022 0.0440293 0.0456
-0.0230149 0.0440535 0.04558
-0.0235213 0.0440663 0.0456
-0.0244978 0.044126 0.04552
-0.0325073 0.0442347 0.045
-0.0330491 0.0442114 0.04505
-0.0334963 0.0442114 0.04505
-0.0339614 0.0442347 0.045
-0.0351153 0.0445331 0.0446
-0.0370316 0.0448132 0.044
-0.0386867 0.0447666 0.0441
-0.0388314 0.0445607 0.0443
-0.0390859 0.0442114 0.04505
-0.0390614 0.0440429 0.04565
-0.0444888 0.0446799 0.05205
-0.0396014 0.0437924 0.04595
-0.039993 0.0438414 0.0462
-0.0410608 0.0439321 0.04565
-0.0419715 0.0440663 0.0456
-0.0436267 0.0442813 0.0449
-0.0441209 0.0443278 0.0448
-0.0446161 0.0443744 0.0447
-0.0455137 0.0443744 0.0447
-0.0460108 0.044421 0.0446
-0.0468461 0.0444675 0.0445
-0.0479583 0.0445607 0.0443
-0.049084 0.0445394 0.0446667
-0.0499945 0.0444675 0.0445
-0.0505302 0.0444443 0.04455
-0.0509797 0.0444443 0.04455
-0.0520184 0.0444675 0.0445
-0.0525806 0.0444675 0.0445
-0.0550157 0.044586 0.0445667
-0.0559995 0.0446688 0.04455
-0.0564991 0.0446788 0.0445286
-0.0570184 0.0446453 0.0446
-0.0575326 0.0446001 0.0446167
-0.0584786 0.044421 0.0446
-0.0589786 0.0443744 0.0447
-0.060789 0.0444675 0.0445
-0.0610248 0.0445706 0.0446
-0.0614474 0.0445682 0.044525
-0.0619628 0.0445839 0.04425
-0.0479597 0.0446262 0.0471333
-0.0629254 0.0448042 0.0441
-0.0620115 0.0450827 0.055
-0.0650823 0.0450263 0.0433
-0.0659932 0.0450263 0.0433
-0.0679989 0.0450728 0.0432
-0.0685333 0.0450496 0.04325
-0.0695284 0.0449564 0.04345
-0.0705151 0.0449332 0.0435
-0.00384417 0.0445749 0.0457
-0.0710832 0.0449332 0.0435
-0.0715377 0.0449332 0.0435
-0.0314926 0.044337 0.0591
-0.0720295 0.0449564 0.04345
-0.0725217 0.0449797 0.0434
0.0399918 0.0451423 0.0437
0.0393053 0.0449732 0.0439
0.0384475 0.0447461 0.044625
0.0371183 0.0439904 0.046
0.0361369 0.0436942 0.0471
0.0358089 0.0434757 0.0471
0.0348733 0.0433738 0.04755
0.0309961 0.0434757 0.0471
0.0160321 0.0441343 0.0606625
0.0300116 0.0435849 0.0471
0.028979 0.0438429 0.04655
0.0286764 0.0439436 0.0461
0.0283899 0.0440138 0.04595
0.0275535 0.0442712 0.0454
0.02653 0.0447227 0.044675
0.0260074 0.0446768 0.0445333
0.0236158 0.0439904 0.046
0.0233695 0.0439436 0.0461
0.0229888 0.04385 0.0463
0.0220708 0.0437798 0.04645
0.0194852 0.0436629 0.0467
0.0174955 0.0436317 0.0467667
0.0169405 0.0436161 0.0468
0.0164484 0.0435848 0.0471
0.0160588 0.0435797 0.0470333
0.0154806 0.0435225 0.047
0.0149492 0.0435693 0.0469
0.0145263 0.0436161 0.0468
0.0139926 0.0436629 0.0467
0.01299 0.0436161 0.0468
0.00899871 0.0438255 0.04654
0.00601657 0.0438561 0.0466
0.00511646 0.04385 0.0463
0.00499521 0.0438664 0.0465
0.00444147 0.0438311 0.046575
0.00312669 0.0453944 0.043
0.00259128 0.0461421 0.04165
0.00237041 0.0463531 0.0412
0.000512677 0.0466699 0.040525
-0.00206199 0.0457971 0.0424667
-0.00282085 0.0456494 0.0427
-0.0039094 0.0448796 0.0441
-0.00651579 0.044112 0.0461333
-0.00691982 0.0440306 0.04615
-0.00714462 0.0439436 0.0461
-0.00748115 0.0439031 0.0465
-0.00849524 0.0437176 0.04705
-0.00903408 0.0434601 0.0471333
-0.00988044 0.0433353 0.0474
-0.0124249 0.04385 0.0463
-0.0130805 0.044201 0.04555
-0.0138809 0.0442712 0.0454
-0.0145181 0.0441776 0.0456
-0.0174634 0.0440909 0.0461
-0.0179729 0.043928 0.0461333
-0.0188036 0.0438032 0.0464
-0.0200799 0.0439436 0.0461
-0.0214617 0.0441645 0.0461
-0.0300456 0.0446423 0.0447667
-0.0307823 0.044552 0.0448
-0.0320023 0.0442244 0.0455
-0.0324475 0.0442244 0.0455
-0.0335422 0.044201 0.04555
-0.035443 0.0447461 0.044625
-0.0386691 0.0445988 0.0447
-0.0387303 0.0444116 0.0451
-0.0411229 0.0440172 0.0461
-0.0425126 0.044162 0.0456333
-0.0435507 0.044312 0.04555
-0.0439124 0.0443414 0.04525
-0.0444936 0.0443648 0.0452
-0.0450517 0.0443648 0.0452
-0.0469858 0.0445052 0.0449
0.0444741 0.0552966 0.03605
-0.0484924 0.044552 0.0448
-0.0500242 0.0445309 0.0450833
-0.051021 0.0445231 0.0451
-0.0514815 0.0445349 0.045075
-0.0592529 0.044552 0.0448
-0.0600375 0.044552 0.0448
-0.0604859 0.044552 0.0448
-0.0645399 0.0451136 0.0436
-0.06496 0.0452034 0.04365
-0.0660231 0.0452961 0.0435333
-0.0664839 0.0452606 0.04348
-0.0674732 0.0452152 0.043625
-0.0679919 0.0451448 0.0435333
-0.0689605 0.0450356 0.0437667
-0.0693897 0.04502 0.0438
-0.0695439 0.0449732 0.0439
0.00308851 0.0436903 0.0486333
-0.0699722 0.0449576 0.0439333
-0.0711299 0.044903 0.04405
-0.0720713 0.0449264 0.044
0.0395246 0.0452559 0.0441
0.0362854 0.0437415 0.047
0.0339806 0.0433682 0.0481
0.0325112 0.0433809 0.0477667
0.0155201 0.0436943 0.0487
0.031974 0.0433887 0.04775
0.0309716 0.0435063 0.0475
0.0304864 0.0435443 0.04765
0.0294753 0.0437101 0.0470667
0.0285542 0.0439766 0.0465
0.027983 0.0441177 0.0462
0.027504 0.0442353 0.04595
0.0260196 0.0447292 0.0449
0.0228785 0.043859 0.04675
0.0224479 0.0438086 0.0471667
0.0215031 0.0437415 0.047
-0.0395796 0.0443507 0.0535
0.0204955 0.0436944 0.0471
0.0199486 0.0436944 0.0471
0.0189642 0.0436944 0.0471
0.0184173 0.0436944 0.0471
0.0179798 0.0436944 0.0471
0.0176326 0.0436474 0.0472
0.0170863 0.0436474 0.0472
0.0160216 0.0435726 0.0476667
-0.049084 0.0449095 0.047075
0.0155148 0.0435298 0.04745
0.0149671 0.043522 0.0474667
0.0144483 0.0436004 0.0473
0.0140118 0.0436004 0.0473
0.0134806 0.0436474 0.0472
0.0124972 0.0436474 0.0472
0.0245855 0.0438936 0.05965
0.011968 0.0437101 0.0470667
0.0114414 0.0437885 0.0469
0.0110206 0.043859 0.04675
0.00992813 0.0438826 0.0467
0.0094887 0.0438826 0.0467
0.0084572 0.0438086 0.0471667
0.00705679 0.0437885 0.0469
0.044775 0.0518612 0.03815
-0.00308583 0.043384 0.051525
0.00354722 0.043765 0.04695
0.00249154 0.0466799 0.041
0.00191758 0.0467752 0.04055
0.0144003 0.0438181 0.0526667
4.41603e-05 0.0467281 0.04065
-0.000306362 0.0467743 0.0408
-0.00157092 0.0460697 0.04205
-0.00304214 0.0457605 0.04295
-0.00326225 0.0455287 0.0432
-0.00347938 0.0453876 0.0435
-0.0054906 0.0443106 0.046025
-0.00879965 0.0436004 0.0473
-0.00942393 0.0434593 0.0476
-0.0114546 0.0436042 0.0476
-0.0123586 0.0438355 0.0468
-0.0126321 0.0440237 0.0464
-0.0129835 0.0440942 0.04625
-0.0140091 0.0441961 0.0460333
0.00706114 0.0438357 0.0501
-0.0149784 0.0441177 0.0462
-0.0159948 0.044254 0.0460667
-0.0620751 0.0450992 0.0505333
-0.0170114 0.0442353 0.04595
-0.0179839 0.0439061 0.04665
-0.0185037 0.0438355 0.0468
-0.020126 0.0440237 0.0464
-0.0204789 0.0440614 0.0466
-0.0220131 0.0442719 0.04606
-0.0225362 0.0443224 0.046
-0.0229912 0.044346 0.04595
-0.023498 0.0443634 0.04596
-0.0245414 0.044346 0.04595
-0.0249844 0.044346 0.04595
-0.0267729 0.044447 0.0455
-0.0270876 0.0446377 0.0455667
0.0285018 0.0437525 0.05158
-0.0276101 0.044541 0.0453
-0.0280857 0.0445881 0.0452
-0.0298974 0.0448312 0.045
-0.0310338 0.044494 0.0454
-0.0319437 0.0442669 0.046
-0.0329398 0.0442118 0.046
-0.0335216 0.0442317 0.046075
-0.0345713 0.0447212 0.045625
0.00199004 0.0436216 0.0496667
-0.0350246 0.0447233 0.04515
-0.0369538 0.0452105 0.04426
-0.0378228 0.0451525 0.044
-0.0389697 0.0440446 0.0466667
-0.0404563 0.0441809 0.0465333
0.00102641 0.0440997 0.0586
-0.0445282 0.0443999 0.0456
-0.0450838 0.0443999 0.0456
-0.0455767 0.044447 0.0455
-0.0464668 0.044447 0.0455
-0.0480754 0.044494 0.0454
-0.0485634 0.0445052 0.0455333
-0.0494359 0.0445637 0.0455667
-0.0525862 0.044541 0.0453
-0.0540381 0.0446351 0.0451
-0.0575473 0.044838 0.045025
0.0215261 0.043751 0.051625
-0.0595376 0.0446673 0.04515
-0.0610772 0.0447094 0.0451
-0.0615567 0.0447702 0.04505
-0.063687 0.0450584 0.0442
-0.0640589 0.0450819 0.04415
-0.067515 0.0452417 0.04405
-0.0689523 0.0450349 0.04425
-0.0691821 0.0449643 0.0444
-0.0699603 0.044886 0.0445667
0.0405289 0.0454022 0.04395
0.0384889 0.0450004 0.0448
0.0365829 0.044055 0.0468
0.0354619 0.0437043 0.048
0.0347742 0.0434405 0.0481
0.0320691 0.0434405 0.0481
0.0313458 0.0434878 0.048
0.0306126 0.0436163 0.0480333
0.0295857 0.0437334 0.0476333
0.0285897 0.0439132 0.0471
0.027534 0.0441495 0.0466
0.0272331 0.0441968 0.0465
0.0273308 0.0448281 0.0454
-0.0645789 0.0450657 0.0533
-0.0587171 0.0451083 0.0491
0.0241249 0.0441495 0.0466
0.0234362 0.0438895 0.04715
0.021473 0.0437855 0.0476
0.0200588 0.0436768 0.0476
0.0195149 0.0436768 0.0476
0.0189709 0.0436768 0.0476
0.0185357 0.0436768 0.0476
0.0174289 0.0436296 0.0477
0.0165506 0.0436059 0.04775
0.0159465 0.0435846 0.0481
0.0149729 0.0435485 0.0481
0.0135093 0.0436059 0.04775
0.0109616 0.0438422 0.04725
0.00900079 0.0438659 0.0472
0.0079358 0.0437882 0.04764
0.00701504 0.0437478 0.04745
0.0065688 0.0437854 0.0476
0.00594142 0.0438659 0.0472
0.0055103 0.0439132 0.0471
0.00452432 0.0438974 0.0471333
0.0030856 0.0436532 0.04765
0.00296214 0.0435846 0.0481
0.00249681 0.0468911 0.0408
0.00226778 0.0469857 0.0406
0.0019195 0.0470566 0.04045
0.00141422 0.0472999 0.0402667
0.000983355 0.0472449 0.0403
-0.000886454 0.0468065 0.041225
-0.001232 0.0465603 0.0415
-0.00282085 0.045993 0.0427
0.0209846 0.0446199 0.0597333
-0.00404898 0.0443859 0.0461
0.0069569 0.0439053 0.0505333
-0.0042701 0.0443859 0.0461
-0.00516006 0.0444331 0.046
-0.00660513 0.0443752 0.0464333
-0.00753957 0.04422 0.0466833
-0.00817113 0.0439604 0.047
-0.0109639 0.0436004 0.0480667
-0.0118046 0.0437381 0.0477
-0.0127838 0.0440077 0.0469
-0.0150523 0.0441901 0.0467
0.0334521 0.0447832 0.05205
-0.0155826 0.0442832 0.04655
-0.0160003 0.0443594 0.0464667
-0.0181063 0.0438895 0.04715
-0.0200339 0.0440272 0.0471667
-0.0211093 0.0442227 0.0466
-0.0261056 0.0444804 0.0459
-0.0314674 0.0443859 0.0461
-0.0320955 0.0442949 0.046525
-0.0333884 0.0443435 0.0465
-0.034784 0.0446695 0.0455
-0.036408 0.0452783 0.04445
-0.0386174 0.044207 0.0466333
-0.0394842 0.0440786 0.04675
-0.0399448 0.044212 0.0467
-0.0415411 0.0443228 0.04642
-0.0444974 0.0444804 0.0459
-0.0449168 0.0444568 0.04595
-0.0469957 0.0444331 0.046
-0.0475491 0.0444331 0.046
-0.0480174 0.0444568 0.04595
-0.0483752 0.0444804 0.0459
-0.05005 0.0446646 0.0456667
-0.0515315 0.0446986 0.04572
-0.0520309 0.0446858 0.0457
-0.0525306 0.0446731 0.04568
-0.0539576 0.0447861 0.0455667
-0.0554665 0.0449295 0.04495
-0.0559435 0.0449531 0.0449
-0.0565034 0.0449531 0.0449
-0.0570633 0.0449531 0.0449
0.0175079 0.0438689 0.0580167
-0.0619713 0.0448586 0.0451
-0.058117 0.0450545 0.0541
-0.0624051 0.0449295 0.04495
-0.0627738 0.0449531 0.0449
-0.0635002 0.0450713 0.04465
-0.0640949 0.0452071 0.0446
-0.0175243 0.0438982 0.0585
-0.0649617 0.0453076 0.04415
-0.0654474 0.0453313 0.0441
-0.0660362 0.0454258 0.0439
-0.0664542 0.0454022 0.04395
-0.0674937 0.0451895 0.0444
-0.0696077 0.0448113 0.0452
-0.0710587 0.0448113 0.0452
-0.0713572 0.0448586 0.0451
0.0408043 0.0455571 0.0441
0.0394385 0.0454146 0.0444
0.0374191 0.0447495 0.0458
0.0361684 0.0440369 0.0473
0.0345151 0.0434669 0.0485
0.0330069 0.0434669 0.0485
0.0324682 0.0434669 0.0485
0.0319296 0.0434669 0.0485
0.0300672 0.0437109 0.0481
0.0135166 0.0436788 0.0552
0.0295643 0.0437952 0.04815
0.0249329 0.0450345 0.0452
0.0233807 0.0437994 0.0478
0.0229547 0.0438152 0.0477667
0.0219932 0.0438469 0.0477
0.0209353 0.0437888 0.04805
0.0205023 0.0437888 0.04805
0.0200529 0.043753 0.048125
-0.0583404 0.0465231 0.0513
0.0189971 0.0437044 0.048
0.0184555 0.0437044 0.048
0.017468 0.0436727 0.0480667
0.0169115 0.0436331 0.04815
0.0164788 0.0436331 0.04815
-0.0124637 0.0442418 0.0564
0.0139686 0.0435619 0.0483
-0.0249977 0.0460315 0.0459
0.0130111 0.0436094 0.0482
0.0135497 0.0438443 0.0586
0.0115102 0.0437649 0.0481
0.0112101 0.0437519 0.0479
0.0100445 0.0438706 0.04765
0.00950253 0.0438786 0.0476333
0.0089572 0.0438706 0.04765
0.00548355 0.0439182 0.04755
0.00505093 0.0439419 0.0475
0.00455492 0.0440456 0.047625
0.00439747 0.0439419 0.0475
0.00395547 0.0438706 0.04765
-0.0170386 0.0439387 0.0580667
0.00273095 0.0435268 0.0486
-0.0342175 0.0444476 0.0521
-0.00402455 0.0443378 0.0466667
-0.00516006 0.0446545 0.046
-0.00804864 0.0443267 0.04715
-0.00835405 0.0439894 0.0474
-0.0114475 0.0437282 0.04795
-0.0136608 0.044227 0.0469
-0.0148665 0.0443366 0.0469
-0.0171132 0.0441935 0.0472
-0.0174315 0.0440606 0.04725
0.0145926 0.0438127 0.05295
-0.0180282 0.0439182 0.04755
-0.0189562 0.0441757 0.05967
-0.0190114 0.0439261 0.0475333
-0.0205115 0.0441081 0.04715
-0.0225194 0.0446775 0.0463
-0.0234948 0.0446937 0.04615
-0.0255307 0.0446764 0.04614
-0.026064 0.0447413 0.04605
-0.0294654 0.0452897 0.04525
-0.0311466 0.0444645 0.0464
-0.0355274 0.0452517 0.0449
-0.0367647 0.0454146 0.0444
-0.0389612 0.0443127 0.04695
-0.0420569 0.0444645 0.0464
-0.0425659 0.0445357 0.04625
-0.0435184 0.0447174 0.0461
-0.0444778 0.0446265 0.046175
-0.0453012 0.044512 0.0463
-0.0455835 0.0444645 0.0464
0.0184669 0.0436893 0.054
-0.0459751 0.044417 0.0465
-0.0643727 0.0449329 0.0468
-0.047076 0.044417 0.0465
-0.0478978 0.0444645 0.0464
-0.0499863 0.0448625 0.04612
-0.054488 0.0449198 0.045675
-0.0549811 0.0449395 0.0454
-0.0609912 0.0448945 0.0551667
-0.0555732 0.0450582 0.04515
-0.0573807 0.044987 0.0453
-0.0576431 0.0449554 0.0456
-0.0615497 0.0449118 0.045575
-0.0621096 0.0449395 0.0454
-0.0645889 0.0452721 0.0447
-0.0649936 0.0453196 0.0446
-0.0170447 0.0438442 0.05565
-0.0660044 0.0453196 0.0446
-0.0664962 0.0452721 0.0447
-0.0669581 0.0451295 0.045
-0.0680673 0.0448287 0.0456333
-0.0692045 0.044702 0.0459
-0.0694992 0.0447173 0.0461
0.0400405 0.0456684 0.044575
0.0395765 0.0455712 0.0447
0.0392025 0.0454965 0.0447
0.0378823 0.045305 0.0455667
0.0373794 0.0449236 0.0459
0.0360318 0.0441968 0.04765
0.0349868 0.0437063 0.048675
0.0335429 0.0435391 0.0488
0.0319555 0.043571 0.0487333
0.0236968 0.0434383 0.0499
0.0304725 0.0437923 0.04854
0.0285291 0.0439211 0.048
0.0281266 0.0439688 0.0479
0.027101 0.0440643 0.0477
-0.0210466 0.04474 0.0472
0.0273985 0.0450907 0.04555
0.0264941 0.0456397 0.0444
0.0259312 0.0456397 0.0444
0.0254279 0.0455443 0.0446
0.0225472 0.0438733 0.0481
0.0199638 0.0438099 0.0485333
0.0194758 0.0437636 0.0486
0.0189757 0.0437301 0.048625
0.0149937 0.0436187 0.0486333
0.0144452 0.0435869 0.0487
0.0140152 0.0435869 0.0487
0.0175327 0.0437831 0.0526
0.00999014 0.0438494 0.04815
0.00901851 0.0438574 0.0481333
-0.0635263 0.0447603 0.0525
0.0084669 0.0438017 0.04825
0.0059941 0.0438892 0.0480667
0.00545982 0.0439449 0.04795
0.00504268 0.0440881 0.04765
0.00254426 0.0436002 0.04912
0.000983355 0.047597 0.0403
-0.00422008 0.044303 0.0472
-0.00468222 0.0446514 0.0467
-0.00545608 0.0448011 0.0466167
-0.0060367 0.0447996 0.0465625
-0.0069525 0.0446148 0.0467
-0.00774145 0.0444462 0.0469
-0.0100698 0.0436108 0.04865
-0.0129053 0.044112 0.0476
-0.0159889 0.0446946 0.0465333
-0.017871 0.0440165 0.0478
-0.0183938 0.0439688 0.0479
-0.018936 0.0439688 0.0479
-0.0199444 0.0440404 0.04775
-0.0223301 0.0447951 0.0464
-0.026992 0.0449236 0.0459
-0.0284269 0.0452019 0.04555
-0.0289783 0.0452419 0.04542
-0.0314764 0.0447163 0.0467286
-0.0319667 0.0444462 0.0469
-0.0324181 0.0446695 0.0468
-0.0329319 0.0446755 0.04665
-0.0360139 0.0456566 0.0446
-0.0383547 0.0459261 0.0438
-0.0386264 0.0445417 0.0467
-0.041015 0.0447504 0.0466571
-0.042012 0.0447471 0.0465
-0.0449362 0.0446442 0.0466
-0.00642072 0.0439772 0.0569
-0.0459956 0.0444479 0.047125
-0.0480997 0.0445655 0.04665
-0.0485845 0.0446466 0.0466333
-0.0504565 0.0449146 0.04615
-0.0520498 0.044844 0.0460667
-0.0530265 0.0448281 0.0461
-0.0574969 0.0449539 0.05815
-0.053997 0.0448997 0.04595
-0.054976 0.0450668 0.0456
-0.0554596 0.0451727 0.0455333
-0.0596762 0.0449236 0.0459
-0.0600086 0.0449236 0.0459
-0.0604518 0.0449236 0.0459
-0.0610058 0.0449236 0.0459
-0.0614489 0.0449236 0.0459
-0.062534 0.0450668 0.0456
-0.0642061 0.0453055 0.0451
-0.0645072 0.0452816 0.04515
-0.0654088 0.04521 0.0453
-0.0659445 0.0450429 0.04565
-0.0661725 0.0449713 0.0458
-0.0625853 0.044751 0.0515
-0.0674761 0.0447326 0.0463
-0.0685062 0.0446849 0.0464
-0.068947 0.0446849 0.0464
-0.0692776 0.0446849 0.0464
-0.0699388 0.0446849 0.0464
-0.0703391 0.0446991 0.0466
0.0409018 0.0458648 0.0444
0.0390276 0.0456843 0.045125
0.0376809 0.0452411 0.0457
0.0368419 0.0448711 0.0467
0.0345503 0.043777 0.048975
0.0325192 0.0437051 0.04908
0.0295271 0.0438498 0.0486
0.0290207 0.0438978 0.0485
0.0281589 0.0438978 0.0485
0.0263834 0.043634 0.04905
0.0254284 0.043466 0.0494
0.0229373 0.0438019 0.0487
-0.040032 0.044577 0.0576
0.0224122 0.0439332 0.04865
0.0209686 0.0439499 0.04866
0.0205098 0.0438978 0.0485
0.0184819 0.0437222 0.0492
0.0180158 0.0437048 0.049125
0.0175323 0.043705 0.04908
0.0159902 0.0437248 0.0490833
0.0104868 0.0438818 0.0485333
0.00951069 0.0438498 0.0486
0.00896943 0.0438338 0.0486333
0.00853282 0.0438019 0.0487
0.00788783 0.0438019 0.0487
0.00542726 0.0438978 0.0485
0.00500992 0.0440178 0.04825
0.00300134 0.0437525 0.0491
-0.00174583 0.0427944 0.0508
-0.00206211 0.0428184 0.05075
0.00594209 0.0439201 0.0571
-0.00294265 0.0431708 0.0506
-0.00750733 0.0446868 0.0470833
-0.00905422 0.0437582 0.049125
-0.0100201 0.043717 0.0491
-0.0115185 0.0437169 0.0491
-0.0128215 0.0440417 0.0482
-0.0150332 0.0447634 0.047
-0.0175243 0.0442338 0.0481
-0.0185551 0.0441617 0.048175
-0.0189927 0.0441738 0.04815
-0.0199598 0.0442773 0.04798
-0.0213841 0.0446904 0.047
-0.0240472 0.0451358 0.04615
-0.0255875 0.0451238 0.046175
-0.0260571 0.0451718 0.046075
-0.0265025 0.0452031 0.0459333
-0.0270576 0.0453411 0.0458
-0.0299347 0.0456889 0.045
-0.0304723 0.0457684 0.0450667
-0.0309405 0.0451069 0.0461333
-0.0316379 0.0446654 0.0469
-0.0340286 0.0451839 0.04605
-0.0344883 0.0452411 0.0457
0.0039492 0.0437831 0.0526
-0.0354527 0.0457369 0.0449
-0.0357329 0.0458091 0.04475
-0.0378425 0.0461938 0.04395
-0.0387779 0.0448093 0.0466
-0.0390403 0.0447667 0.0470875
-0.0429385 0.0449053 0.0464
-0.0434684 0.044926 0.04654
-0.044017 0.0448813 0.04645
-0.0450964 0.0446414 0.04695
-0.0455379 0.0445375 0.0471667
-0.0489528 0.0447614 0.0467
-0.0534039 0.0448093 0.0466
-0.000889383 0.0438833 0.0524
-0.0546266 0.0450013 0.0462
-0.0575828 0.0448093 0.0466
-0.0580367 0.0449053 0.0464
-0.0585542 0.0450492 0.0461
-0.0594705 0.0450732 0.04605
-0.0605444 0.0450492 0.0461
-0.0624904 0.0450972 0.046
-0.0628893 0.0451452 0.0459
-0.0635331 0.0452092 0.0457667
-0.0643979 0.0451932 0.0458
-0.0646276 0.0451212 0.04595
-0.0649667 0.0450492 0.0461
-0.0651594 0.0449533 0.0463
-0.0665697 0.0446414 0.04695
-0.0675436 0.0446334 0.0469667
-0.0681035 0.0446414 0.04695
-0.0689802 0.0446414 0.04695
-0.0694556 0.0446654 0.0469
0.039904 0.0458489 0.0449
0.0387327 0.045656 0.0453
0.0381654 0.0455114 0.0456
0.0372205 0.0451739 0.0463
0.0351921 0.0442317 0.0487
0.0349005 0.0439204 0.0489
0.0305204 0.0437919 0.0491667
0.0294724 0.043824 0.0491
0.0285408 0.0438722 0.049
0.0279948 0.0438561 0.0490333
0.027424 0.0437999 0.04915
0.026543 0.0436538 0.0496
0.0259679 0.0435106 0.04975
0.0245278 0.0434167 0.05012
0.0234036 0.0436216 0.0496667
0.0226693 0.043854 0.0575
0.0229313 0.0437999 0.04915
0.0226104 0.0439067 0.04915
0.02197 0.0440168 0.0487
-0.0190106 0.044494 0.0544
0.020409 0.0438963 0.04895
0.0199692 0.0438722 0.049
0.0154351 0.0437758 0.0492
0.0120339 0.0438481 0.04905
0.010957 0.043824 0.0491
0.0100012 0.0438561 0.0490333
0.00945867 0.043824 0.0491
0.00903057 0.043824 0.0491
-0.0169609 0.0440149 0.05655
0.00849239 0.0438079 0.0491333
0.00752811 0.0437999 0.04915
0.000460659 0.043303 0.0506167
-0.000589501 0.0429321 0.05095
-0.00147802 0.0429 0.051125
-0.00195368 0.0429562 0.0509
-0.00248244 0.0430285 0.05075
-0.0045554 0.0448124 0.04705
-0.00490718 0.0450293 0.0466
-0.00664529 0.0448847 0.0469
-0.00811842 0.0445472 0.0476
-0.00888175 0.0440168 0.0487
-0.0119597 0.0438722 0.049
-0.0123952 0.0438963 0.04895
-0.013225 0.0441615 0.0484
-0.014444 0.0445954 0.0475
-0.0160399 0.0451016 0.04645
-0.016445 0.0452246 0.04665
-0.016712 0.0448364 0.047
-0.0168946 0.04474 0.0472
-0.0170578 0.0445954 0.0475
-0.0172196 0.0444508 0.0478
-0.0327244 0.0460565 0.0463
-0.0180684 0.0441374 0.04845
-0.020571 0.0446439 0.0477
-0.0207608 0.0445954 0.0475
-0.0215763 0.0449329 0.0468
-0.0275694 0.0456757 0.0455667
-0.0280043 0.045683 0.045475
-0.0284349 0.0456821 0.0454
-0.0269979 0.0470933 0.0451
-0.0288061 0.0456078 0.0454
-0.0290057 0.0458369 0.0452333
-0.0294407 0.04584 0.04515
-0.0311133 0.0451876 0.0465
-0.0325115 0.0451275 0.0467
-0.0336069 0.0451739 0.0463
-0.0344387 0.0457175 0.0456333
-0.0364264 0.0461167 0.0445
-0.0370672 0.0462992 0.0442
-0.0386533 0.0448847 0.0469
-0.0404072 0.0448847 0.0469
-0.0419005 0.0450703 0.0466667
-0.0424296 0.0450534 0.04655
-0.0436957 0.0448847 0.0469
-0.00147952 0.0442329 0.052575
-0.0440392 0.0447882 0.0471
-0.0443811 0.0446918 0.0473
-0.0450478 0.0445954 0.0475
-0.0454342 0.0445472 0.0476
-0.0459616 0.0445311 0.0476333
-0.0469573 0.0445472 0.0476
-0.0610061 0.0448616 0.0533
-0.0501048 0.0450293 0.0466
-0.0505718 0.0450534 0.04655
-0.0509846 0.0450293 0.0466
-0.0513145 0.0450293 0.0466
-0.0520242 0.0448974 0.0471
-0.0524899 0.0448123 0.04705
-0.0551124 0.0450775 0.0465
-0.0556716 0.0451739 0.0463
-0.0556439 0.0448847 0.0469
-0.0565173 0.0444508 0.0478
-0.0574786 0.0446918 0.0473
-0.0594521 0.0451391 0.0466
-0.0600131 0.0451751 0.04648
-0.0605067 0.0451875 0.0465
-0.00146928 0.0441544 0.0546667
-0.0609476 0.0451611 0.0466
-0.0630161 0.0450614 0.0465333
-0.063563 0.0449811 0.0467
-0.063851 0.0450293 0.0466
-0.0650172 0.0447721 0.0471333
-0.0658828 0.0446918 0.0473
-0.0670476 0.0445954 0.0475
-0.0685512 0.0446196 0.047675
-0.0654803 0.0446825 0.0501
-0.0690234 0.0446437 0.047625
-0.0695149 0.04468 0.04755
0.0388529 0.0458689 0.04555
0.0342823 0.0438927 0.0494
0.0335492 0.0438778 0.04965
0.0330724 0.0438443 0.0495
0.0319891 0.04382 0.04955
0.0304813 0.0437958 0.0496
0.0290233 0.0438443 0.0495
0.0285009 0.0438604 0.0494667
0.0279886 0.0438927 0.0494
0.0275314 0.0438443 0.0495
0.0264766 0.0437108 0.0500667
0.0260258 0.0436064 0.0501
0.0240036 0.043541 0.0562333
0.0223842 0.0439896 0.0492
0.0215289 0.0439896 0.0492
0.0211013 0.0439896 0.0492
0.0205215 0.0438927 0.0494
0.0189546 0.0437232 0.04975
0.0174668 0.0437232 0.04975
0.0154678 0.0437797 0.0496333
0.0149332 0.0437716 0.04965
0.0144996 0.0437474 0.0497
0.0134438 0.0437716 0.04965
0.0130327 0.04382 0.04955
0.0119644 0.0439142 0.049575
0.0115323 0.0438899 0.049625
0.0110114 0.0438281 0.0495333
0.00950949 0.0437797 0.0496333
0.00855035 0.0437716 0.04965
0.00749076 0.0437958 0.0496
0.0170609 0.04391 0.058
0.00696378 0.0438281 0.0495333
0.00643 0.04382 0.04955
0.00600401 0.04382 0.04955
0.00546449 0.0437635 0.0496667
0.00344232 0.0437474 0.0497
0.00190914 0.0436784 0.0501333
0.00120291 0.0435051 0.0502
-0.000483118 0.0432402 0.05125
-0.00156968 0.0431169 0.05126
-0.00205342 0.0431616 0.051125
-0.0024741 0.043198 0.05105
-0.00353916 0.0433114 0.0506
-0.0103412 0.0440381 0.0491
-0.0109928 0.0436505 0.0499
-0.0114298 0.0436989 0.0498
-0.0117354 0.0436505 0.0499
-0.0172287 0.044135 0.0489
-0.018067 0.0440865 0.049
-0.0184491 0.0442319 0.0487
-0.0193405 0.044412 0.04855
-0.0201212 0.0445946 0.0481
-0.021311 0.0451649 0.047
-0.0215879 0.0452864 0.04675
-0.0225422 0.0456628 0.045975
-0.023024 0.0456299 0.0459667
-0.0235364 0.0456587 0.0459833
-0.0240729 0.0456264 0.04605
-0.0249578 0.0456264 0.04605
-0.0254624 0.0455832 0.046025
-0.026438 0.0455884 0.0459
-0.0266329 0.0458171 0.0457333
-0.0270637 0.0458206 0.04565
-0.0304086 0.0462707 0.0448
