ply
format ascii 1.0
comment Created by Open3D
element vertex 1510
property float x
property float y
property float z
end_header
0.0289642 0.0145021 -0.0187038
0.0271802 0.00157374 -0.0221816
-0.00239824 0.0109543 -0.0489198
0.0263523 0.00203367 -0.0277404
0.0278878 0.00159254 -0.0203009
0.0261275 0.00624515 -0.0320271
0.0282779 0.00159881 -0.0195849
0.0277794 0.00615656 -0.0235678
0.0205008 0.0472084 0.00687096
-0.020972 0.00189626 -0.0422074
0.0248101 0.0104955 -0.0360208
-0.0202466 0.00180474 -0.0419425
0.0238039 0.0100599 -0.037641
0.00225539 0.00159223 -0.044424
0.00540637 0.00496713 -0.046473
0.0125304 0.0120125 -0.0468056
0.0216665 0.0124609 -0.0404916
0.00252443 0.00267391 -0.0451924
-0.0229696 0.0456829 -0.0346812
0.0234739 0.00999655 -0.0382212
0.0216143 0.0485133 0.0102273
0.0186003 0.00150342 -0.0414536
0.0115239 0.00906202 -0.0462979
0.018996 0.00161474 -0.0412443
0.00298846 0.0120845 -0.0486196
0.0268004 0.00163981 -0.0267889
0.0291287 0.00172862 -0.0189782
-0.0201673 0.0020709 -0.0420122
0.0204152 0.0255129 -0.0397129
-0.0195089 0.00206908 -0.0417475
-0.0111437 0.0019179 -0.0465019
0.0139814 0.0120963 -0.0461987
-0.0398965 0.0454913 -0.0273067
-0.00873294 0.0286159 -0.0464957
-0.0110263 0.0020839 -0.0463957
-0.00865871 0.00203322 -0.0455868
0.00186129 0.0195051 -0.0503096
0.0252033 0.048951 0.0105674
0.00116315 0.00183048 -0.0449391
0.00152741 0.00190678 -0.0448828
0.0166996 0.00171937 -0.0430129
-0.0285492 0.045685 -0.0387687
0.017066 0.00171998 -0.0427628
-2.48253e-05 0.0430504 -0.0515717
0.00271104 0.0470973 -0.0308819
0.023537 0.00449836 -0.036294
0.0171676 0.0175523 -0.0444747
0.0231496 0.00200337 -0.0358249
0.0235519 0.00205432 -0.0353154
0.0238022 0.00200954 -0.0351016
0.0246925 0.00203217 -0.0333175
0.000417081 0.0440135 -0.0515283
-0.00896389 0.048339 -0.0327149
0.000917716 0.0127439 -0.0490068
0.0148922 0.0350955 -0.0406307
0.0783728 0.0482212 0.0204803
0.0248311 0.00196314 -0.0327371
-0.0104396 0.0396718 -0.0332782
0.025105 0.00193717 -0.0318092
0.00346293 0.0256104 -0.0498852
0.00501895 0.0160696 -0.0492948
0.0313721 0.0468095 0.0139558
0.00586969 0.0575683 -0.0332151
0.0305805 0.0467764 0.0155772
0.0256663 0.00192509 -0.02983
0.0259555 0.0020199 -0.0287778
0.0134948 0.0185458 -0.0471725
0.0115267 0.00957518 -0.0464035
-0.0362657 0.0450656 -0.0379121
0.0260616 0.00194736 -0.0282546
-0.0350078 0.0457125 -0.0301422
0.011498 0.0329979 -0.0443705
0.0266209 0.00199871 -0.0272678
0.0206184 0.0453549 -0.0389605
0.0276678 0.00473593 -0.021727
0.0240424 0.00258798 -0.0348186
0.0268954 0.0020055 -0.0267051
0.0255681 0.0301421 -0.0298097
0.0203268 0.0368294 -0.031681
0.0270773 0.00201177 -0.0262248
0.0150726 0.00857433 -0.04481
0.027186 0.00201668 -0.0258734
0.0161791 0.00238373 -0.0434288
-0.0146057 0.0260359 -0.0464222
0.0272342 0.00190151 -0.0253837
-0.017875 0.0274866 -0.046289
-0.00811172 0.0435504 -0.0332044
0.0223743 0.0128613 -0.0395056
0.0272433 0.00191062 -0.0248011
0.00423972 0.019767 -0.0499756
0.0272273 0.00193065 -0.0235401
-0.00496304 0.0258758 -0.0492459
0.0179528 0.0329578 -0.0376705
-0.0038291 0.00372745 -0.0477059
0.0149546 0.0474803 0.0197769
-0.0431141 0.0450349 -0.0273745
0.0139618 0.00854362 -0.0454402
0.0274092 0.00208363 -0.0217608
0.0203892 0.0163487 -0.0416524
0.0277026 0.00209606 -0.0208409
-0.0169159 0.0137797 -0.0456776
0.00092022 0.0454825 -0.0596287
0.0278841 0.002098 -0.0206206
-0.0193326 0.0541708 -0.057696
0.00438239 0.0125733 -0.0485076
0.0263929 0.0039858 -0.0272551
0.0284539 0.0021491 -0.0197912
0.0276046 0.0469965 0.0107991
0.026014 0.00751476 -0.0323235
-0.0049496 0.0214938 -0.049623
0.0289819 0.00204564 -0.019294
0.0135097 0.0476299 0.0132847
-0.021538 0.0025208 -0.0426111
0.0195038 0.0335781 -0.00626204
-0.0210389 0.00247411 -0.0424288
0.0169588 0.0340538 -0.0382213
0.021878 0.0195561 -0.0390993
0.0729132 0.0496608 0.0222355
0.00449444 0.0245694 -0.0497708
0.00146154 0.00356318 -0.0461236
-0.0156867 0.0275389 -0.0459494
0.0241805 0.0055299 -0.035807
-0.0205007 0.00242644 -0.0422817
0.0225449 0.00601949 -0.0382332
-0.0194669 0.00233247 -0.0419542
-0.00848229 0.00215764 -0.0454272
-0.037045 0.045677 -0.0293554
-0.0139732 0.00231807 -0.0395908
-0.0130126 0.00232013 -0.0389207
0.0601189 0.0479833 0.0312456
0.0164685 0.00203059 -0.0431462
0.0175391 0.0287256 -0.041258
0.0273642 0.0135889 -0.0206898
0.0255153 0.00291135 -0.0302443
0.0225057 0.00851305 -0.0391988
-0.0222994 0.0460832 -0.05352
-0.00592664 0.00852425 -0.0481086
0.0175104 0.00205499 -0.0424293
-0.00347599 0.0250109 -0.0491186
-0.0150576 0.0457787 -0.0365218
0.0149001 0.00407171 -0.0445521
0.017882 0.00205551 -0.0421858
0.019014 0.00206041 -0.0412725
0.0195973 0.0020642 -0.0407336
0.0203249 0.00207021 -0.039996
-0.0130256 0.0066397 -0.0458564
0.0201318 0.0470344 0.00608053
0.0207526 0.00207674 -0.0394026
0.0248301 0.0259168 -0.0335844
-0.0119639 0.0236035 -0.0472449
0.0256205 0.00494787 -0.031704
0.0238923 0.0426033 -0.0168053
0.0263506 0.0110504 -0.0321292
-0.0295465 0.0444611 -0.0476967
0.0212095 0.00208211 -0.0388502
0.0213938 0.00212307 -0.0385706
0.0209075 0.00955993 -0.0411608
-0.0205152 0.0506782 -0.0532982
0.0275608 0.00996903 -0.0211536
0.0343457 0.0474644 0.0309147
-0.0106215 0.00685102 -0.0466623
0.0215705 0.0020513 -0.0382761
0.0217649 0.00209195 -0.0380099
0.0124932 0.0160038 -0.0472889
0.0224226 0.00545948 -0.038246
0.0219346 0.0020974 -0.0376232
0.022303 0.00210283 -0.0371219
0.014929 0.00260579 -0.0441505
0.0255591 0.0095158 -0.0337409
0.0190516 0.0225169 -0.0433148
0.0225753 0.00210825 -0.036676
-0.0125123 0.0471131 -0.0366689
0.0273248 0.00215352 -0.0249849
0.0215758 0.0235389 -0.0392045
-0.0155122 0.0435289 -0.0322232
-0.00898605 0.00934933 -0.0484894
0.0595053 0.047918 0.0296211
0.0237217 0.00349595 -0.0354368
0.027295 0.00216587 -0.0243093
0.0235502 0.0479419 0.0117877
0.0795682 0.0478022 -0.00818785
0.027323 0.00218643 -0.0231385
0.0145246 0.0566249 -0.0267171
-0.0454248 0.00599537 -0.0266591
0.0298867 0.00870285 -0.0215429
-0.019543 0.00259836 -0.042056
0.0170952 0.00290079 -0.0429384
-0.0104921 0.00253419 -0.0462989
-0.0180215 0.011095 -0.0457386
0.0258569 0.00955956 -0.0330494
-0.00955192 0.00252817 -0.0460448
-0.00202084 0.029549 -0.0475857
0.0206459 0.0419966 -0.0187662
0.0189017 0.00350514 -0.0415105
-0.009338 0.00252817 -0.0459213
0.0120848 0.0140672 -0.0472938
0.0275476 0.0171176 -0.0313996
-0.00859997 0.00248624 -0.0455337
0.000454865 0.00258197 -0.0461275
-0.0124764 0.0411551 -0.0322602
0.018854 0.0435542 -0.0264114
-0.00202322 0.0130502 -0.0490305
0.00245706 0.00229119 -0.0448272
-0.012981 0.0310405 -0.0451378
0.0170703 0.0295514 -0.0407492
0.022795 0.00469221 -0.0375307
0.0050114 0.0456078 -0.0495301
0.00299874 0.00244181 -0.0448031
0.0060151 0.022504 -0.0491816
0.0786352 0.0475056 -0.000210594
-0.0249142 0.0455772 -0.0466581
-0.000921719 0.0135543 -0.0490296
0.00495859 0.0289938 -0.0482134
0.00520665 0.0546143 -0.0394869
0.0172771 0.00216396 -0.0426794
0.0148644 0.0324721 -0.0411279
0.0248027 0.00250254 -0.0330229
0.024935 0.0025177 -0.0322537
0.0242839 0.00519834 -0.0355163
0.0254253 0.00246478 -0.0307774
0.0055384 0.0575683 -0.0334064
-0.00917274 0.00534331 -0.0464032
0.0257748 0.00244382 -0.0296903
-0.000625933 0.0564981 -0.0421231
0.0259119 0.00245345 -0.0291493
0.0214778 0.0220228 -0.0392149
-0.0113703 0.00845665 -0.0470947
-0.00457011 0.0243981 -0.0495194
0.0805458 0.047805 0.00162377
0.0260512 0.0024631 -0.028607
0.0261526 0.00246906 -0.0282598
0.0227292 0.00855782 -0.0387811
0.0262976 0.00247274 -0.0280028
0.0697668 0.049303 0.0309268
0.0200063 0.039468 -0.0293258
0.0264221 0.00247756 -0.0277001
0.00698834 0.00359036 -0.0457329
0.0269058 0.00249202 -0.0267279
0.0272271 0.00250406 -0.0259651
-0.0102085 0.00563198 -0.0460775
-0.010361 0.0302142 -0.0459346
0.0147047 0.0163491 -0.0458966
0.0273153 0.00253655 -0.0243553
0.0273832 0.00255823 -0.0232769
0.00551119 0.0595725 -0.0332836
0.0286715 0.00261366 -0.0198774
0.0289938 0.0026143 -0.0196624
0.0231868 0.014967 -0.0378818
0.0165395 0.0300825 -0.040767
-0.0320583 0.0453416 -0.038312
0.079519 0.0479784 -0.00139393
0.0774692 0.0495529 0.00881567
0.02939 0.00257235 -0.0194047
-0.021404 0.00296329 -0.0427263
0.0161322 0.0355882 -0.0383367
0.0210902 0.020529 -0.0397466
-0.0200252 0.00299931 -0.0423055
-0.00965866 0.0266415 -0.0481849
0.00198272 0.00275224 -0.0455052
-0.00583618 0.0169906 -0.0504813
0.0278361 0.0145743 -0.021803
0.0264331 0.00854323 -0.0307825
0.0284667 0.0180884 -0.0207076
-0.0194838 0.00299672 -0.0421084
0.000217937 0.00264027 -0.0462931
-0.000421983 0.0284392 -0.048741
0.061929 0.048664 0.0324061
0.0159995 0.00501148 -0.044328
0.019 0.0290042 -0.0397795
0.00152976 0.00267844 -0.0455742
0.0167843 0.00249338 -0.0431371
-0.0119792 0.00557746 -0.0455698
0.00642208 0.00912051 -0.047253
0.0246105 0.0304989 -0.0308244
0.0173413 0.00253445 -0.0426424
0.0591161 0.0496633 0.044292
0.0186124 0.0556732 -0.0237797
0.0122453 0.0124515 -0.0469701
0.0175609 0.00246204 -0.0424386
0.0235778 0.0190225 -0.0373097
0.0178958 0.00250006 -0.0422068
-0.0424689 0.0450742 -0.0302352
0.0125836 0.0340558 -0.0433108
0.010852 0.0137388 -0.0480055
0.0213288 0.0310015 -0.00419806
0.01813 0.0025027 -0.041956
0.0125149 0.0449913 -0.0453422
0.0218948 0.00903747 -0.0402251
0.0760356 0.0483061 0.0209783
-0.0298736 0.0437231 -0.0479626
0.0190687 0.00248355 -0.0412755
0.0166168 0.0215595 -0.0444462
0.0201124 0.0025146 -0.0402919
-0.00994638 0.0264244 -0.0482355
0.0253683 0.0295914 -0.0302137
0.0203249 0.00251857 -0.039996
0.0403837 0.0460182 -0.0390383
0.0143769 0.0199817 -0.0465478
0.0205642 0.00252122 -0.0397424
0.0217198 0.00253708 -0.0383824
-0.0337986 0.0454498 -0.0323308
0.0218151 0.00254238 -0.0380964
0.0779809 0.0477534 -0.00809394
0.0219845 0.00254899 -0.0377099
0.0718563 0.0469108 -0.0197514
-0.00155701 0.0100384 -0.0487035
-0.00824256 0.044979 -0.0300468
0.0715028 0.0474883 -0.021803
0.026816 0.00872819 -0.0296666
0.0229363 0.00257211 -0.03615
0.0105196 0.0149553 -0.0481109
0.0231496 0.00257677 -0.0358249
0.0253299 0.00410728 -0.0312944
0.0233666 0.00261768 -0.0355841
0.0200566 0.00953956 -0.041883
0.0235683 0.0025446 -0.0353136
0.0280086 0.0135696 -0.0287182
0.0243827 0.00261789 -0.0343277
0.0246084 0.00256461 -0.0338279
0.0157752 0.00359358 -0.0440084
0.0165817 0.0570289 -0.0262512
0.0247383 0.00261116 -0.0334065
0.0278758 0.00617403 -0.0231657
-0.0207031 0.00313634 -0.0425525
-0.0111052 0.00303223 -0.0465374
-0.00989187 0.0030229 -0.0462122
-0.0387931 0.0451463 -0.0352144
-0.00405492 0.00643577 -0.048125
0.0213369 0.0041007 -0.0390653
0.0199234 0.0225073 -0.0416711
-0.00955192 0.00302221 -0.0460448
-0.0208629 0.0355387 -0.0424138
0.0185461 0.00350306 -0.0417799
0.0152606 0.044962 -0.040495
0.00747565 0.0075013 -0.046664
0.0229681 0.0290356 -0.0337934
-0.00930019 0.00302071 -0.0459572
0.0710671 0.0484172 0.0457072
-0.0168132 0.0551061 -0.0552601
-0.0089983 0.00302146 -0.045754
0.0107317 0.0452891 -0.0464584
0.0189525 0.0149593 -0.0432132
0.0253319 0.00302185 -0.0306774
0.00248292 0.0440765 -0.0506435
0.0225863 0.0195121 -0.0383055
0.00904122 0.0105743 -0.0470495
0.0256825 0.00292068 -0.0297725
0.000410685 0.0431367 -0.0330183
0.0210646 0.0570104 -0.0278102
0.0266209 0.00296966 -0.0272677
0.0176285 0.00952938 -0.0434003
0.0274836 0.00305102 -0.0235076
-0.0165982 0.0431594 -0.032677
0.0203325 0.0270091 -0.0402225
0.0233818 0.0135742 -0.0376538
0.027565 0.00302943 -0.0226523
0.0279453 0.00314415 -0.0212011
0.0250788 0.00398442 -0.0327095
0.00547158 0.00394684 -0.0462045
0.0281303 0.00298022 -0.0208825
0.0284253 0.015909 -0.0274673
0.00154461 0.0135496 -0.0489143
-0.0134091 0.0406114 -0.0333761
0.029497 0.00842052 -0.0222297
0.0285844 0.00311428 -0.0203318
0.0298515 0.00311866 -0.019427
-0.0203919 0.00353413 -0.0424883
0.0208685 0.0210588 -0.0400286
-0.0214741 0.0515981 -0.0537075
-0.019463 0.00348347 -0.042183
0.000557983 0.00299128 -0.0461546
0.0252064 0.00448412 -0.0327898
0.00596822 0.0603985 -0.0327888
0.0312527 0.047054 0.0215079
0.000876326 0.00314414 -0.0461055
0.0174013 0.00294044 -0.0426655
0.0654673 0.049897 0.0487672
0.0185249 0.00294773 -0.0417473
-0.0229546 0.0460427 -0.0361737
0.00756738 0.017999 -0.0493053
0.00248591 0.00396556 -0.0462924
0.0194003 0.00295284 -0.0410494
0.0605145 0.0492354 0.027317
0.0789504 0.0491801 0.00713049
0.0196138 0.00291825 -0.04083
0.00252745 0.00343331 -0.0459412
-0.00306089 0.0476792 -0.0272861
0.0210069 0.00295254 -0.039302
0.0214794 0.00295933 -0.0387752
0.0217198 0.00287583 -0.0383824
0.0251606 0.00404013 -0.0321812
0.0218502 0.0030263 -0.0383071
0.0258015 0.00572845 -0.0331967
0.0229968 0.00302608 -0.0362594
0.0231976 0.00303237 -0.0359125
0.0234475 0.00303543 -0.0356528
0.0243066 0.00305107 -0.0345795
-0.0105746 0.0369961 -0.0350882
0.0245134 0.0030573 -0.0342291
0.0760033 0.0473338 -0.0151824
0.0248483 0.00308224 -0.033112
0.0157809 0.0373791 -0.0370769
0.00261758 0.0150746 -0.048545
0.0276323 0.0144975 -0.0299266
-0.0138839 0.0400127 -0.0341121
0.0249137 0.00309159 -0.0327279
0.0250825 0.00311496 -0.0317643
0.0159655 0.0375812 -0.0367105
0.0271477 0.015961 -0.0317845
0.0148476 0.0365631 -0.0390592
-0.0185596 0.0349534 -0.0427584
-0.00994901 0.0035196 -0.0461586
0.0138493 0.0110575 -0.0460826
-0.00930019 0.00351452 -0.0459572
0.022601 0.0350042 -0.0308299
0.0744481 0.0494421 0.024161
0.00806181 0.00901021 -0.0471915
-0.00672745 0.0303714 -0.0461461
0.0215979 0.0480194 0.0107374
0.0208558 0.00308225 -0.039574
0.0805513 0.0480037 0.0129623
0.0256351 0.00352117 -0.0296748
0.0259471 0.00342575 -0.0286672
-0.0404182 0.0453418 -0.0292244
0.0203252 0.0320063 -0.00558574
0.0261098 0.00343754 -0.0281691
-0.00548077 0.0253188 -0.0495833
0.0277575 0.00448522 -0.0216175
0.0263585 0.00345094 -0.0275636
0.0269301 0.00348111 -0.0261943
0.020778 0.0158111 -0.0415819
0.0167056 0.0462604 0.00364055
0.027565 0.00361499 -0.0226523
0.00699519 0.0130412 -0.0478074
0.0278361 0.00359334 -0.021803
0.0280471 0.00360334 -0.0213348
0.00692119 0.00426608 -0.0460026
-0.0470196 0.00650601 -0.0271468
-0.0295945 0.0454889 -0.0402574
0.0240136 0.0460092 -0.0378663
0.0187599 0.0064574 -0.0425161
0.0260531 0.0234994 -0.0317698
0.0292458 0.00349623 -0.0199499
-0.0285117 0.0450217 -0.0485619
-0.0384349 0.0444362 -0.0411852
0.00860061 0.0080081 -0.0468035
-0.000600403 0.00358569 -0.0465924
-0.00793798 0.0310932 -0.0454594
-0.000259444 0.00346627 -0.0464533
-0.00984616 0.00961877 -0.0486395
8.22544e-05 0.00354114 -0.0463714
0.0015967 0.0284034 -0.0490767
0.000389522 0.00357672 -0.0463095
0.000934934 0.00356948 -0.0462256
0.0285855 0.0219255 -0.0287989
0.00760275 0.020914 -0.0490155
0.0114588 0.0209958 -0.0477245
0.00198734 0.00351622 -0.0460799
0.00303276 0.0034281 -0.0458227
0.0795294 0.0479975 -0.0122421
0.00387282 0.00352638 -0.045915
0.0209859 0.0120092 -0.0411617
0.0714395 0.0470594 -0.0201845
0.00649491 0.00353876 -0.0458446
0.02761 0.0480592 0.00993619
0.0240466 0.0365086 -0.0191989
0.01749 0.0154907 -0.0441731
-0.00793933 0.0439353 -0.0342596
0.0109792 0.0185168 -0.048163
0.017077 0.00354876 -0.0431743
0.0176621 0.00327544 -0.0424571
-0.0243605 0.0149364 -0.0466271
0.019427 0.00350885 -0.0410917
0.0196021 0.00351348 -0.0408464
0.0334661 0.0476555 0.0267117
0.0211046 0.00353412 -0.0393342
0.0165175 0.0235733 -0.0442265
0.0151552 0.0129862 -0.0454056
0.0225001 0.00346186 -0.037239
0.0170412 0.0225283 -0.0442911
0.0250274 0.0464759 0.0135835
0.0226974 0.0034691 -0.0368942
0.02433 0.0035103 -0.0346237
0.00797085 0.0455596 -0.0479369
0.0199369 0.0125004 -0.042106
0.0788583 0.0485482 0.0120426
0.0245597 0.00351567 -0.0343178
0.0261362 0.0180636 -0.03335
0.0248092 0.00356855 -0.0337119
0.02696 0.0115765 -0.0307958
0.017017 0.00654684 -0.0438688
0.0253172 0.00361618 -0.0306474
0.0149929 0.00909827 -0.0448065
0.000792358 0.0590741 -0.0375322
0.0134691 0.0352712 -0.0421067
0.00342874 0.0598449 -0.036241
0.0272544 0.00365711 -0.0242173
0.0283371 0.00373344 -0.0210519
0.0390108 0.0484844 0.0297975
0.0214357 0.0466088 -0.0390852
-0.0105312 0.0462478 -0.0401438
0.07132 0.0495106 0.0251263
0.013013 0.0145177 -0.0468272
-0.00197258 0.00371634 -0.0469805
0.0259435 0.0285477 -0.0297661
0.0282896 0.00887767 -0.0235041
-0.0119732 0.00837286 -0.0468654
-0.00128779 0.00371263 -0.0467006
0.0130309 0.00681044 -0.0454773
-0.00101251 0.00370893 -0.0466571
-0.00295181 0.00453388 -0.0477768
0.0266257 0.0145034 -0.0338179
0.0114742 0.0294574 -0.0457988
-0.000189111 0.00369781 -0.0465281
-0.00648058 0.00897659 -0.0481283
0.00239405 0.00366262 -0.0461337
0.00751009 0.0115038 -0.0472214
-0.0170451 0.0453886 -0.0327426
0.00573609 0.00360518 -0.045994
0.000727737 0.0582458 -0.037454
0.0144849 0.00359636 -0.0446667
0.0725255 0.0490895 0.036792
-0.0199211 0.0470397 -0.0380596
0.0167054 0.00359544 -0.0434136
0.0218205 0.0035459 -0.0385552
0.0250376 0.00367373 -0.032714
0.0140121 0.0271146 -0.0457654
-0.0194331 0.0455884 -0.0346601
0.0266727 0.019208 -0.0235139
0.0259435 0.0039776 -0.0287154
0.0166611 0.0125291 -0.0443821
0.0260884 0.00392236 -0.0281237
0.0263373 0.00381638 -0.0275181
0.0206451 0.0139628 -0.0418896
0.0266322 0.00395874 -0.0267128
0.0270054 0.00402697 -0.0256697
-0.0185957 0.00902185 -0.0450308
0.0271618 0.00401794 -0.0246172
0.000569291 0.00900344 -0.0488038
0.0276075 0.00408866 -0.0222237
-0.0113797 0.0270033 -0.0475619
-0.0209406 0.0504903 -0.0532897
0.00670872 0.0179433 -0.0494739
0.0348099 0.0481728 0.0274875
0.0289341 0.0040035 -0.0201875
-0.0466981 0.00552881 -0.0266148
-0.0105267 0.0214008 -0.0488015
-0.0461631 0.00551699 -0.0266523
0.017998 0.0389147 -0.0327947
0.0232891 0.00426608 -0.0365526
-0.00151268 0.00402453 -0.0469074
0.0199459 0.0409234 -0.0286966
-0.00107906 0.00406042 -0.0467533
0.026238 0.0162569 -0.0338108
0.00350985 0.00703734 -0.0478731
0.00205737 0.00389736 -0.0462704
-0.00548745 0.011398 -0.048952
0.00591218 0.00398017 -0.0460848
0.00632987 0.00393669 -0.0459976
0.0771558 0.0495609 0.00898116
0.0281504 0.013029 -0.0272411
-0.0219567 0.0340367 -0.0426412
0.017773 0.00371214 -0.042624
-0.0200143 0.0306501 -0.0444643
0.0220549 0.0040014 -0.0382851
0.022207 0.00378702 -0.0378701
0.0287014 0.0224347 -0.0238437
0.0270397 0.047433 0.0106847
0.0199412 0.0385737 -0.0302294
0.0224193 0.00405242 -0.0377091
0.0232165 0.00393054 -0.0364212
0.0240198 0.00395496 -0.0352646
0.0242007 0.0039651 -0.0348716
-0.00037398 0.0135739 -0.0490309
0.0110205 0.00805477 -0.0462917
0.024855 0.00395087 -0.0338009
0.0159387 0.0380722 -0.0366683
-0.0390879 0.044795 -0.0385023
0.0250068 0.00404442 -0.0332514
0.021629 0.00455047 -0.0388966
0.0256716 0.0041152 -0.02975
0.0293162 0.00427566 -0.0194473
-0.0480592 0.00588425 -0.0267078
0.00600738 0.00954766 -0.0473385
-0.0469008 0.00602008 -0.0268473
-0.0465733 0.00601788 -0.0267159
-0.00903261 0.033382 -0.043551
-0.0371565 0.045203 -0.0350778
-0.0461631 0.0060115 -0.0266523
0.0218414 0.0312975 -0.00390206
-0.00644561 0.00545531 -0.0477155
0.024346 0.0359709 -0.027667
0.00496459 0.0150329 -0.049153
-0.00312686 0.00418454 -0.0477624
0.0145292 0.00403629 -0.0447278
0.0263523 0.00655249 -0.0277404
0.0151042 0.00392561 -0.0443957
0.0201831 0.025918 -0.0401933
0.0229919 0.0285537 -0.0338374
0.0158329 0.004032 -0.0440906
0.0258352 0.010931 -0.0332639
-0.0197866 0.0457324 -0.0542632
0.0167904 0.004032 -0.0435378
0.0195571 0.0473498 -0.020463
0.0181664 0.00401208 -0.0422815
0.0183863 0.00408904 -0.0420775
0.0174967 0.0475411 0.0189352
0.0188458 0.00405881 -0.0416294
0.00652376 0.0594478 -0.0312786
0.0190946 0.00406206 -0.0413991
0.0109089 0.0427586 -0.0454323
0.0233331 0.0140396 -0.0375664
0.0193572 0.0040642 -0.0411897
-0.0136119 0.0413987 -0.0330313
-0.00788109 0.0118521 -0.0493525
-0.019904 0.0319846 -0.0432458
0.019854 0.0040363 -0.0406528
0.0201124 0.00408138 -0.0402919
0.0195372 0.00853753 -0.0422983
0.0208558 0.00409212 -0.039574
-0.0114041 0.00468519 -0.045613
0.00364411 0.0200532 -0.0499731
-0.01749 0.0160967 -0.0469328
0.0350323 0.0477914 0.028713
0.0228197 0.00414143 -0.0371122
0.0248134 0.00409684 -0.0340559
-0.0315588 0.0455417 -0.0346172
0.0607866 0.0492354 0.0274741
-0.0155296 0.01762 -0.0467247
-0.00600288 0.0555847 -0.0467901
0.0260369 0.00451012 -0.0285768
0.0262125 0.00441415 -0.0278211
-0.0240531 0.047683 -0.0385977
0.0263373 0.00430147 -0.0275181
0.00496077 0.0255409 -0.0496363
0.0270703 0.00450004 -0.0250164
-0.00149429 0.0155317 -0.0492447
0.0272676 0.00454727 -0.0236323
0.00996588 0.0169944 -0.0484247
0.0187901 0.0344496 -0.035686
0.00500243 0.0435694 -0.0482074
0.027323 0.00456445 -0.0231385
0.0286143 0.00453534 -0.0197371
-0.0134823 0.00472931 -0.0456582
-0.0129993 0.00472048 -0.0456103
-0.0125174 0.00471166 -0.045563
0.0206202 0.0104444 -0.0413266
0.0240852 0.0311704 -0.030839
0.021087 0.0474255 0.0111931
-0.00851365 0.00458593 -0.0465423
-0.00394422 0.00453847 -0.0482343
-0.0195858 0.045534 -0.0501058
-0.00252925 0.00457013 -0.0476098
-0.000476766 0.00451918 -0.0467231
1.78912e-05 0.00451349 -0.0465818
0.00249059 0.00441677 -0.0466361
-0.00255245 0.0230057 -0.0494515
0.000969475 0.0249718 -0.0500162
0.0715324 0.0492354 0.0336782
0.0215875 0.0464865 -0.0296831
0.0124641 0.0135198 -0.0470747
0.0120398 0.0309987 -0.0448255
0.015873 0.00709728 -0.0445293
0.0222648 0.0476414 0.00315508
0.00347507 0.00432343 -0.0464911
0.0382695 0.0478806 0.033411
-0.00512779 0.0484172 -0.0295186
0.0231629 0.0120402 -0.0388193
0.00501154 0.0119808 -0.0478846
0.00396156 0.00453776 -0.0466144
0.0151103 0.00709728 -0.0449697
0.016159 0.00555605 -0.0443641
0.0130424 0.0240874 -0.0468179
0.011484 0.0234922 -0.0481025
0.0199495 0.0341824 -0.00655322
-0.00689425 0.0451166 -0.0496488
0.0208558 0.00498977 -0.039574
0.00454348 0.00437783 -0.0464516
0.0271553 0.0121364 -0.030202
-0.00650713 0.0215592 -0.0497525
0.00601336 0.00446196 -0.0461803
0.0141695 0.0220212 -0.0468118
-0.0444459 0.00647348 -0.0264692
0.0134506 0.00415579 -0.0451196
0.0137985 0.00415138 -0.0450342
0.00197291 0.0155366 -0.0483745
-0.00450889 0.0150844 -0.0491088
0.0067237 0.0317204 -0.046463
0.00184 0.0456466 -0.0515343
0.0237137 0.00439573 -0.0359032
0.0277164 0.019955 -0.0221608
0.024729 0.00443209 -0.0343933
0.0182948 0.00514026 -0.0426114
-0.0150912 0.0150158 -0.0471067
0.0248364 0.00444103 -0.0341004
0.0270043 0.0468888 -0.0297888
0.0695537 0.048224 0.0138297
0.0249887 0.00449099 -0.0337238
0.0127716 0.0468933 0.0163803
0.0251042 0.00442877 -0.0332722
-0.0102345 0.0201254 -0.0482864
0.00881792 0.0215188 -0.0486026
0.0283254 0.00579259 -0.0203658
0.0598557 0.0466069 -0.028691
-0.0289929 0.0450579 -0.0486088
0.0260902 0.00696334 -0.029797
-0.0408327 0.0449563 -0.0339671
0.0284791 0.0230457 -0.0301786
0.0673137 0.0494294 0.031358
0.0256062 0.00459305 -0.0307884
0.0194847 0.00497116 -0.0412663
0.014031 0.026507 -0.0459007
0.0129719 0.0129862 -0.0466662
0.0258184 0.00458817 -0.0297806
0.0259336 0.00460867 -0.0291945
-0.0236423 0.0472833 -0.0378986
0.021421 0.0482634 0.00982704
-0.0468175 0.00651066 -0.0269146
-0.0464486 0.00650601 -0.0268171
0.0136452 0.0272142 -0.045931
0.018059 0.0170237 -0.0438446
-0.0104885 0.0109235 -0.0492991
-0.0450967 0.00647812 -0.0267294
-0.0134433 0.00510552 -0.0456934
-0.0170381 0.0120989 -0.0458925
0.0263431 0.0208869 -0.0316716
-0.0125174 0.0050889 -0.045563
-0.00689574 0.00488389 -0.0472825
0.0185163 0.0220817 -0.0436301
0.0226265 0.0409598 -0.0168049
-0.00209301 0.0046425 -0.0475119
0.031409 0.0468995 0.0234456
0.0223936 0.00506833 -0.0381954
0.00255942 0.0100909 -0.0483188
-0.00100321 0.00463785 -0.0469982
0.00101044 0.00460533 -0.0466439
0.067968 0.0491118 0.0451303
0.0150868 0.0456271 -0.0437996
0.00186131 0.00458209 -0.04673
0.0126871 0.0429324 -0.0453871
0.01777 0.0390377 -0.0330418
0.00447821 0.00469828 -0.0466048
0.0266102 0.0277363 -0.0297854
-0.00568907 0.049292 -0.0361936
0.00744525 0.0044845 -0.045931
0.00835669 0.00446126 -0.0459821
0.0116633 0.0045005 -0.0458628
0.022026 0.0465276 0.0143333
-0.0029809 0.00747293 -0.0479091
0.0125909 0.00449567 -0.0454427
0.027634 0.0144813 -0.0198027
0.0258489 0.0119221 -0.0348148
0.0130362 0.00449091 -0.0453011
0.0137985 0.00448377 -0.0450342
-0.008554 0.0436856 -0.0346914
-0.024831 0.0506218 -0.0547507
0.0145734 0.00447539 -0.0447889
0.0276129 0.020001 -0.0227113
-0.0375541 0.0450862 -0.0436212
0.0206093 0.0475302 0.0101667
0.0150005 0.00447179 -0.0446289
0.0174571 0.0274619 -0.0427488
0.0154789 0.00441657 -0.0443527
0.0172015 0.00447179 -0.0433581
0.01772 0.00447656 -0.0429433
0.0690215 0.0475218 -0.0185782
0.00100831 0.0475193 -0.052765
0.0179383 0.00448254 -0.042673
-2.42678e-05 0.0179904 -0.0496277
0.0211331 0.0200637 -0.0398181
0.0243383 0.00906524 -0.0362932
0.0196315 0.00447983 -0.0408582
0.00154929 0.00535425 -0.0469486
0.019854 0.0045575 -0.0406528
0.00947049 0.00499105 -0.0461184
0.0269367 0.0197938 -0.0315599
-0.00606407 0.0560685 -0.0466869
0.018528 0.0105325 -0.0427656
-0.0249848 0.0541017 -0.0533961
0.0205772 0.00453978 -0.0397638
0.0282623 0.0131983 -0.0270995
0.0213369 0.00455047 -0.0390653
0.0219683 0.00455523 -0.0385853
0.00744455 0.00870628 -0.0471438
0.0221859 0.00456233 -0.0382865
-0.0419517 0.0448075 -0.026357
0.0795494 0.0483367 0.0206977
0.0232131 0.00459568 -0.0368851
0.020133 0.0139878 -0.0424162
-0.0190421 0.0290713 -0.0458274
0.0253183 0.00460997 -0.0324943
-0.0254856 0.0129781 -0.0448903
-0.0059955 0.00697372 -0.0481484
0.0262125 0.00501934 -0.0278211
0.0269621 0.00500599 -0.0257717
-0.00209126 0.0454509 -0.0602703
-0.0460327 0.00746826 -0.0271543
-0.00594971 0.0139697 -0.0494499
0.0270252 0.00498663 -0.0252156
0.00567788 0.0306351 -0.0472978
0.0191897 0.0124531 -0.0424701
-0.0246634 0.0540025 -0.0575407
0.0271733 0.00503172 -0.0240332
0.0340267 0.0478771 0.0272086
0.0272273 0.00505079 -0.0235401
-0.00150994 0.0296064 -0.0476756
-0.00647919 0.0454175 -0.0587045
0.0274784 0.00509843 -0.0222405
0.0129988 0.0285539 -0.0457268
0.0278591 0.00513178 -0.0212124
0.0280873 0.00509734 -0.0208882
-0.0369486 0.044931 -0.0433101
0.0288311 0.00507469 -0.0189192
-0.0453809 0.00697052 -0.0268935
0.0790056 0.0479535 0.0212786
0.0384772 0.0481548 0.0307596
0.0674451 0.0487347 0.0317226
-0.00707745 0.0130721 -0.0500432
-0.0148289 0.00526348 -0.0457428
-0.0456652 0.00746291 -0.0270577
0.0258616 0.0473726 0.0115826
-0.0144521 0.00525371 -0.0457562
0.0175618 0.0575893 -0.0266956
0.0187599 0.00612608 -0.0425161
-0.00252669 0.00497082 -0.0477854
-0.0018533 0.00499282 -0.0474313
-0.00105156 0.00498653 -0.0471127
-0.0214326 0.0333087 -0.0430891
0.00992289 0.0335103 -0.0450778
-0.0229872 0.0506057 -0.0540788
-0.000454738 0.00492168 -0.0469125
1.19347e-06 0.00501101 -0.0468416
0.0156452 0.0255646 -0.0447763
0.000466245 0.00496531 -0.0467271
0.0129966 0.0165794 -0.0470907
0.0627076 0.049349 0.0405921
0.00245932 0.00497662 -0.0469159
0.0277667 0.0115891 -0.0265773
0.0136589 0.0334489 -0.0423723
0.00305615 0.00485361 -0.0469254
0.0168977 0.017985 -0.0446594
0.00353395 0.00495019 -0.0468959
0.0293826 0.00709804 -0.023566
-0.039063 0.0451957 -0.0331763
0.00150036 0.0460334 -0.0607948
0.00855069 0.00468 -0.0460433
-0.0199548 0.0310096 -0.0440258
0.00893965 0.00467268 -0.0459919
0.0237853 0.00473127 -0.0360352
0.0217346 0.0155046 -0.0392975
0.0250038 0.0050545 -0.0342231
0.0254535 0.00494537 -0.0327626
0.0257795 0.00502281 -0.0307846
0.0017588 0.0422658 -0.0508306
-0.0301578 0.0473708 -0.0491081
-0.0113044 0.0330945 -0.0440544
0.0258529 0.00503782 -0.0303958
0.00142182 0.0595374 -0.0375152
0.0233482 0.0264302 -0.0357102
-0.00649849 0.0139766 -0.049709
0.0259327 0.0050641 -0.0297435
-0.0140519 0.0453122 -0.0546858
0.0282484 0.00529277 -0.0201793
0.07565 0.0483865 0.0333997
0.0283737 0.00543296 -0.0198183
-0.00691194 0.0455844 -0.0311838
0.028718 0.00534648 -0.018638
-0.0139754 0.0451241 -0.0537179
-0.0135032 0.00565142 -0.0457473
0.0683223 0.0478833 0.0161209
-0.00996436 0.028507 -0.0466293
-0.0234807 0.033338 -0.0441561
-0.0125642 0.0056321 -0.0456285
0.0282583 0.0215323 -0.0276792
-0.0108817 0.00553941 -0.0457734
0.0133491 0.0344801 -0.0425224
0.0221058 0.0475328 0.00271691
0.00496034 0.00508523 -0.0466439
0.0220199 0.00597467 -0.0387699
0.00600046 0.00503023 -0.0464187
-0.0310879 0.0450171 -0.0431211
-0.00849499 0.0451929 -0.0286914
0.00806298 0.00502636 -0.0461517
-0.00024298 0.0584264 -0.0397465
0.00859298 0.00497486 -0.0461536
0.00895974 0.00504121 -0.0461343
0.0724287 0.0490494 0.0307316
0.0137985 0.0289692 -0.0450342
-0.0271911 0.0452652 -0.0450282
0.0100012 0.00497924 -0.0460718
0.00598343 0.033993 -0.0451199
0.0122718 0.00494264 -0.0455692
0.0179706 0.0340753 -0.0368904
0.0154863 0.00505714 -0.0445909
0.00549323 0.0463719 -0.0628388
0.0164927 0.00500995 -0.0440753
0.00198929 0.00897338 -0.0483593
0.0260832 0.0066022 -0.0319372
0.00598804 0.0190629 -0.0498034
0.0174583 0.00501805 -0.0433446
0.0690073 0.0489257 0.0450953
0.0182123 0.00481614 -0.0424859
0.028134 0.0133804 -0.0276932
0.0196202 0.00484685 -0.0409802
0.0260804 0.00699775 -0.0292253
0.019857 0.00496353 -0.040728
0.0173944 0.0451252 -0.024252
-0.0172668 0.00944617 -0.0455338
0.0205902 0.00498715 -0.0397851
-0.0156539 0.0385952 -0.0357402
-0.0372186 0.0450489 -0.043543
0.0211088 0.00499367 -0.0393413
0.023028 0.00503817 -0.0372518
0.023833 0.00506831 -0.0361231
0.0242369 0.0049748 -0.035428
0.0160152 0.0340513 -0.0397707
-0.0325907 0.0452268 -0.045028
0.00950836 0.0170163 -0.0485503
0.0248216 0.00511276 -0.0345709
0.0253323 0.00504134 -0.0332945
0.0257737 0.00511811 -0.0313076
-0.00202322 0.0120059 -0.0490305
0.0193574 0.0430594 -0.0268137
0.0263684 0.00540206 -0.0272981
0.0380542 0.0486954 0.0287833
0.0272025 0.00537402 -0.0247091
-0.0235661 0.0458364 -0.0354297
0.0300307 0.00746736 -0.023211
0.0274033 0.00555512 -0.023323
0.000960954 0.0459577 -0.0597437
0.0275058 0.00562147 -0.022725
0.0105035 0.0115622 -0.047052
0.0277181 0.00550197 -0.0215247
0.0279584 0.00567771 -0.021232
-0.0149076 0.00590357 -0.0456728
-0.00953773 0.00559986 -0.046383
-0.00925785 0.00748352 -0.0476071
-0.00704049 0.00796118 -0.048261
-0.00879356 0.00556238 -0.0467617
-0.00590113 0.00555061 -0.0479207
-0.00546576 0.0259712 -0.049286
-0.0029978 0.00548385 -0.0481497
0.0174267 0.047529 0.0201073
0.0317026 0.0470496 0.0223449
0.0248489 0.0115702 -0.0365758
-0.000925052 0.00540485 -0.0472995
-0.0267979 0.0462788 -0.0393741
0.02558 0.0139365 -0.0352877
0.000232868 0.00531076 -0.0469773
0.000965457 0.00540976 -0.0469296
-0.00808205 0.0453065 -0.0281066
0.00341682 0.00521975 -0.0471021
-0.00661086 0.0154568 -0.0498201
-0.0170989 0.0545916 -0.0529424
0.00547293 0.00519031 -0.0465501
0.00159498 0.0274049 -0.0503478
-0.0312219 0.0452661 -0.0398498
0.0105772 0.00507521 -0.0460857
-0.00148444 0.0104922 -0.0487771
0.026971 0.0185422 -0.0322329
0.0109919 0.0050645 -0.0460772
0.0276308 0.0118027 -0.0244619
0.0111849 0.0050645 -0.0459658
0.0151552 0.0140824 -0.0454056
0.0178035 0.00513211 -0.0430683
0.0255817 0.00534874 -0.033189
0.0281693 0.0205386 -0.0206484
-0.0220471 0.0145201 -0.0458688
0.0256999 0.00528935 -0.0327358
0.0257229 0.00531076 -0.0322607
0.0190284 0.00600246 -0.0421995
0.0258491 0.00544957 -0.0317259
-0.00454377 0.0154019 -0.0493887
0.0204298 0.0349904 -0.00656459
0.0292334 0.052513 -0.0353146
0.0159385 0.0400791 -0.0366684
0.0258803 0.00543573 -0.031169
0.0211774 0.0429591 -0.0322292
0.0260033 0.00554513 -0.0296161
0.0268373 0.0155594 -0.0326854
0.0261312 0.00560812 -0.0282144
0.0262125 0.00562453 -0.0278211
0.00801299 0.0114827 -0.0471331
0.0149203 0.0210789 -0.0457491
-0.0034999 0.0175378 -0.0504257
0.0264695 0.0164347 -0.0332441
0.0267586 0.00554097 -0.0266975
-0.0140369 0.00612621 -0.0458053
0.0310005 0.0465779 0.0118937
-0.0129839 0.00606049 -0.0456784
0.0254418 0.00694884 -0.0342705
0.0290989 0.0230399 -0.0298496
0.0603817 0.0485702 0.0389028
0.0176137 0.0360381 -0.0357878
0.0276509 0.0478895 -0.0257204
-0.0124869 0.00612911 -0.0456994
0.0039345 0.0431634 -0.0489971
-0.0115822 0.00605761 -0.0457736
0.0141047 0.03308 -0.0418263
0.000470561 0.0440999 -0.0324641
-0.0106524 0.00589647 -0.0459873
-0.00990353 0.00585735 -0.0463633
-0.040788 0.045458 -0.0279368
0.0211399 0.0165566 -0.0403338
-0.00949221 0.00595804 -0.0465876
0.0110416 0.0134978 -0.0478528
-0.00255864 0.00557231 -0.0480117
0.0206323 0.0459026 -0.0317356
-0.00153596 0.00556392 -0.0475944
0.0266332 0.0473545 -0.0264235
0.0134529 0.0106238 -0.0461113
0.000527118 0.00564538 -0.047125
-0.00220189 0.0467772 -0.0301388
0.00195802 0.00556928 -0.0470591
0.00245512 0.00562726 -0.0471569
0.00304997 0.00556986 -0.0471984
0.00421636 0.00543258 -0.0469869
0.00463649 0.00550127 -0.0468982
0.02167 0.00650957 -0.0393348
0.00505574 0.00549374 -0.0468102
0.00143653 0.0445116 -0.0512765
0.0228686 0.00547563 -0.0376613
-0.0234424 0.0544608 -0.0528232
-0.0304824 0.0454903 -0.03873
0.00552688 0.00554583 -0.0467152
-0.000414067 0.00950129 -0.0489097
0.00602292 0.0055545 -0.0465597
0.0219968 0.0334743 -0.0327376
0.00646127 0.00550708 -0.0464991
0.0686045 0.0492441 0.0403016
0.00746491 0.00552002 -0.04642
0.0184816 0.0555721 -0.0240861
0.00794808 0.00547138 -0.0463624
0.0219405 0.0070098 -0.0392942
-0.0331685 0.0453893 -0.0350847
0.0654053 0.0471325 -0.0252272
0.00849991 0.00545705 -0.0463324
0.00903374 0.00544425 -0.046284
0.0100208 0.00553135 -0.0462145
0.0109711 0.00551189 -0.0460507
0.0256097 0.0191004 -0.0343467
0.0104744 0.0330237 -0.0448749
0.0216494 0.00902944 -0.040463
0.0111849 0.00551003 -0.0459658
0.00743637 0.0225192 -0.0488229
-0.00401546 0.022013 -0.0494301
0.0115464 0.00550324 -0.0458918
0.0276117 0.0148054 -0.0199696
0.0119727 0.00549936 -0.0457226
0.0225464 0.0320567 -0.0332575
0.0142417 0.0287171 -0.0448938
0.0122718 0.00549838 -0.0455692
0.0130161 0.00549155 -0.0452742
0.0209326 0.028569 -0.037711
0.0685638 0.0489764 0.0450124
0.0261612 0.00741052 -0.0302178
0.018884 0.00525932 -0.0420981
0.01947 0.0055606 -0.0416443
0.0287942 0.0230399 -0.0300256
0.0115644 0.0125646 -0.0473344
-0.0273133 0.0461695 -0.0408263
0.0196337 0.00535205 -0.0412803
0.0200475 0.00551484 -0.0407527
0.0279172 0.0144379 -0.0296081
0.00901121 0.023023 -0.0486641
0.0203832 0.00557439 -0.0402626
0.0108981 0.0334377 -0.0446302
0.0679805 0.0470736 -0.0187752
0.0211345 0.00543999 -0.0393842
0.0125658 0.0110852 -0.0465542
0.0230767 0.00548565 -0.0373391
0.0145052 0.00906849 -0.0451804
0.0239436 0.00552274 -0.0360881
0.0234792 0.0170316 -0.0378285
0.024331 0.00553561 -0.0356046
0.0245343 0.00554697 -0.0352563
-0.0242578 0.0354958 -0.0425263
0.0249904 0.00556409 -0.0346465
0.0100075 0.0200089 -0.0483391
0.0251969 0.00557556 -0.0342964
-0.00606553 0.0182136 -0.0502673
0.0253277 0.00558406 -0.0340477
0.0265683 0.00601087 -0.0271538
0.00208252 0.0295219 -0.0482958
0.0269058 0.00602251 -0.026728
0.0233968 0.0370081 -0.0196606
0.0272271 0.00580705 -0.0259651
-0.0159534 0.0460447 -0.0378473
0.0275703 0.00600054 -0.0243237
0.01305 0.0381135 -0.040328
0.0276197 0.00593001 -0.0231981
0.074605 0.0486449 0.0336047
0.0279652 0.0059887 -0.0217863
0.0278427 0.030739 -0.0284964
0.0284145 0.00600267 -0.0212381
0.0790538 0.0478642 -0.0127284
0.010042 0.0105029 -0.0468278
-0.0154748 0.00630217 -0.0456538
0.0155065 0.00751888 -0.0446947
-0.00892941 0.00604589 -0.0469556
-0.00555494 0.00600918 -0.0480961
-0.00352479 0.00598155 -0.0482231
0.0217649 0.0249718 -0.0380099
0.00642721 0.0204327 -0.0493188
0.0044528 0.0210477 -0.0495639
-0.00257783 0.00595956 -0.0480997
-0.000980943 0.0058947 -0.0476781
-0.000538362 0.00604093 -0.0477459
0.00552585 0.0130121 -0.0483324
-0.000303097 0.00577214 -0.0474022
0.000917157 0.00575466 -0.0470441
0.000166574 0.0584798 -0.0378165
0.0284508 0.0140491 -0.0269329
0.00705116 0.00560322 -0.0465049
-0.00615395 0.0139697 -0.0495678
0.0089248 0.0265592 -0.0479173
0.0615871 0.0485401 0.0307653
0.0150545 0.00558762 -0.0448171
0.0155579 0.00555896 -0.0446535
0.0179061 0.0290717 -0.0405841
0.0277575 0.0190273 -0.0216175
0.0165404 0.00555605 -0.044144
0.0173421 0.00556199 -0.0435656
0.0175865 0.00556642 -0.0433379
0.0120356 0.0110943 -0.0466294
0.0179228 0.00560471 -0.0431149
0.0181039 0.005539 -0.0428564
0.0229603 0.00899845 -0.0387342
-0.0011031 0.0226004 -0.0494807
-0.00102971 0.0440372 -0.0337056
0.00341609 0.015549 -0.0487576
0.0186507 0.00558576 -0.0423483
0.0158002 0.034343 -0.040068
0.0189247 0.00558722 -0.0421612
0.00103169 0.0216983 -0.0499225
0.0191718 0.00559171 -0.0419319
-0.0107544 0.0456985 -0.0452379
0.0285844 0.0174968 -0.0203317
0.0160096 0.0140824 -0.0449123
0.0198496 0.0056125 -0.0411365
-0.0242646 0.0458308 -0.0477842
-0.0219586 0.045874 -0.0352522
0.0247851 0.00566729 -0.034996
0.0219737 0.0110385 0.00110104
-0.00843348 0.0473264 -0.0381244
0.0741027 0.0495482 0.0251163
0.0260501 0.00584203 -0.0308016
-0.0165186 0.0126374 -0.0457561
0.0260942 0.00606708 -0.0286977
0.0272683 0.00604589 -0.0260568
-0.00214201 0.013569 -0.0489643
0.0283983 0.00620898 -0.0221712
0.074049 0.0487324 0.0325908
0.0286856 0.0062148 -0.0218899
0.0232723 0.00729817 -0.00353782
0.0206116 0.0154896 -0.0418704
-0.0163443 0.0065812 -0.045694
-0.0139925 0.00666465 -0.0459527
-0.00568328 0.0190545 -0.050624
-0.0134747 0.00648727 -0.045827
0.0204029 0.0310829 -0.00527149
0.019251 0.00908856 -0.0424636
-0.0125078 0.0065436 -0.0457884
-0.0120227 0.00656698 -0.0458547
-0.0114597 0.00653924 -0.0460493
0.0184321 0.0416177 -0.0355463
-0.0108984 0.00651138 -0.0462449
-0.00737157 0.00619942 -0.0477882
0.0238551 0.00852438 -0.0371111
-0.00446553 0.0190404 -0.0507003
0.0202083 0.0390238 -0.0294401
-0.00429657 0.00608428 -0.0482068
0.0155162 0.0430232 -0.0388078
0.0039345 0.0147982 -0.0489971
-0.0219054 0.0459469 -0.0358566
0.0277245 0.00985269 -0.0240614
-0.00209422 0.00618175 -0.0480515
-5.47492e-05 0.00610044 -0.047663
0.0050114 0.0222174 -0.0495301
0.067501 0.0483572 0.0137992
0.000483877 0.00598126 -0.0474098
0.0194884 0.0374906 -0.0317898
0.0186214 0.0464467 -0.00275897
0.0740775 0.0490126 0.0287968
0.00139752 0.00596308 -0.0472287
-0.0110387 0.0191452 -0.0482888
0.00298843 0.00590248 -0.0474649
0.0233844 0.0118964 -0.038576
0.0158224 0.047905 0.0180263
-0.019156 0.040842 -0.0362322
0.00600143 0.00596774 -0.0466491
0.00642876 0.00595532 -0.0466333
-0.00454121 0.0174374 -0.0506285
0.00758967 0.00603735 -0.0465404
0.00861247 0.00578431 -0.0464695
-6.51497e-05 0.0290752 -0.0483041
0.008482 0.00852498 -0.046949
0.00900052 0.00577522 -0.0464187
0.00938705 0.00591231 -0.0464264
0.0288672 0.0155175 -0.0186673
0.0215013 0.0059668 -0.0392879
0.0223107 0.00601222 -0.0385031
0.0800369 0.0478365 0.00140692
0.0229423 0.00611046 -0.0377151
0.0231216 0.00589913 -0.0373421
0.0221081 0.0260001 -0.0377733
0.0233102 0.00594606 -0.03706
0.0237314 0.00596774 -0.0364127
0.016828 0.0545102 -0.0274657
0.0279845 0.0170728 -0.0212939
0.0154052 0.0194658 -0.0456769
0.0239555 0.005977 -0.0361101
-0.0313022 0.0455417 -0.0344691
0.0276643 0.0195266 -0.0263478
0.0245927 0.00599705 -0.0353669
0.0175049 0.0249715 -0.0434139
-0.0139817 0.0234997 -0.0474476
-0.019343 0.0454404 -0.0508894
0.0276001 0.00957891 -0.0212464
0.0250482 0.00601558 -0.0347576
0.0773414 0.0472588 -0.0134283
0.060591 0.0486007 0.0283427
-0.000953271 0.044507 -0.0522809
0.0253603 0.00606984 -0.0342791
0.0256384 0.00604339 -0.0338972
-0.0050781 0.00694618 -0.0480806
0.0260832 0.00601762 -0.0319372
0.0804683 0.0484014 0.00667899
0.0271807 0.00627214 -0.0264538
0.0295661 0.0229457 -0.0294644
0.0274516 0.00656824 -0.0262281
-0.00194964 0.0551825 -0.043965
0.0275449 0.00641871 -0.0257816
0.0159574 0.0456882 -0.0440765
0.0275943 0.00632062 -0.0252912
0.0183933 0.0465433 0.00449948
0.0149264 0.017102 -0.0460766
0.0277518 0.00634486 -0.0247384
0.0279719 0.00648352 -0.0243226
0.0149296 0.0154907 -0.0456512
0.0182159 0.0397389 -0.0313987
-0.0207073 0.0483063 -0.0380516
0.0280559 0.00646784 -0.023793
0.0279172 0.025077 -0.0296081
-0.0204362 0.0164317 -0.0460357
-0.00348256 0.0136172 -0.049007
0.0281315 0.00641758 -0.0231336
0.00760275 0.0171611 -0.0490155
0.0284162 0.00642364 -0.0228537
0.0230168 0.00759323 -0.00368535
-0.0144991 0.0460969 -0.0557138
0.0231199 0.00765989 -0.00235566
-0.00340856 0.0151219 -0.0490797
0.0280701 0.0480578 0.00985543
-0.016492 0.00692218 -0.0457793
0.0276789 0.0130582 -0.0194689
-0.00898836 0.0462233 -0.0348652
-0.0159557 0.00694241 -0.0458738
-0.0146715 0.00677398 -0.0458829
0.0207138 0.0372515 -0.0308803
-0.0104076 0.006604 -0.0465388
-0.00839713 0.00649068 -0.0474565
0.0268075 0.0159823 -0.0327122
-0.00753599 0.00652271 -0.0478446
-0.0138948 0.0448902 -0.0327328
-0.00919917 0.0116712 -0.0495362
0.0176067 0.0320988 -0.0388519
-0.00686123 0.00641513 -0.0479554
0.0158526 0.029975 -0.0417698
-0.00557359 0.00648701 -0.048078
0.0248725 0.0124671 -0.0366199
-0.00498478 0.0065084 -0.0480652
-0.00354593 0.00641816 -0.0481487
0.0185993 0.0461162 -0.0456111
-0.00297173 0.00656634 -0.0481116
-0.0181972 0.0160581 -0.0466483
-0.00121119 0.00920707 -0.0487348
-0.00158785 0.00624515 -0.0480285
0.0129616 0.0120018 -0.0466529
0.0364187 0.0480894 0.0293402
0.0764748 0.0494422 0.0151697
0.000459131 0.00619794 -0.0477127
0.00150654 0.0061759 -0.0475122
0.0249919 0.019982 -0.0352923
0.0788059 0.0477706 -0.0080795
-0.0120245 0.0190311 -0.04855
0.00217986 0.0231277 -0.0500102
0.00406174 0.0080233 -0.0476535
0.00309168 0.00612239 -0.0475785
0.00349196 0.00611295 -0.0475206
0.0235131 0.0266201 -0.0348066
-0.0149333 0.0077513 -0.0466114
0.0235408 0.0249569 -0.00615411
0.00848249 0.00615569 -0.0466023
0.0104467 0.0060733 -0.0462765
0.0109782 0.00608661 -0.0461313
0.00197175 0.00851819 -0.0483405
0.0115515 0.0060589 -0.0458985
0.0230361 0.0339454 -0.0312485
0.0123563 0.00608899 -0.0455589
-0.0147718 0.0352552 -0.0428231
0.0288049 0.018515 -0.0202045
0.0120044 0.016008 -0.0475422
0.0126331 0.00601279 -0.0454376
0.0134956 0.00603645 -0.0451802
0.0275461 0.0101521 -0.0204693
0.0139839 0.00602526 -0.0451004
0.0188373 0.0437564 -0.0258438
-0.0389753 0.0445205 -0.0402848
0.0144855 0.00601243 -0.0450417
-0.0109721 0.00807841 -0.0469802
0.0150369 0.00594929 -0.0448677
0.0159558 0.00603092 -0.04452
0.0165546 0.00599476 -0.0441646
0.0179546 0.00600922 -0.0430965
0.0790821 0.0476159 -0.00572614
-0.0238625 0.016114 -0.0463973
0.0253201 0.0185554 -0.0350336
0.0182413 0.00600922 -0.042931
0.0184593 0.00601721 -0.0426608
-0.0272029 0.04624 -0.0397234
0.0212309 0.015136 -0.0406276
0.0187053 0.00591149 -0.0424322
-0.0334693 0.0450246 -0.0427639
0.0195736 0.0060327 -0.0417385
0.0290519 0.00687061 -0.0234105
0.0199869 0.00606986 -0.0412304
-0.00396882 0.0255552 -0.0490568
0.0578598 0.0470621 -0.0305651
0.0275976 0.00998368 -0.022518
-0.0090316 0.0449743 -0.0357851
0.0218275 0.00611183 -0.039013
0.0241527 0.0504554 -0.0429822
0.0258588 0.00616961 -0.0335679
-0.00807127 0.0453671 -0.0560441
0.0260949 0.00651366 -0.03143
0.0220688 0.0200466 -0.0387582
0.0260801 0.00645816 -0.0303224
0.0156327 0.0270954 -0.0443793
0.0700364 0.049288 0.0339692
-0.0199266 0.044988 -0.0327126
0.0267909 0.0151233 -0.0333761
0.0252811 0.0345441 -0.0275505
0.0260685 0.00649022 -0.0297518
0.0233506 0.00650702 -0.0371329
0.0260588 0.00652229 -0.02918
0.024057 0.0470281 -0.0172876
0.0260942 0.00654794 -0.0286977
0.0263986 0.0100415 -0.031732
0.0261526 0.00657033 -0.0282598
0.0200821 0.00797802 -0.0417989
0.0266175 0.00656516 -0.0273563
0.0270633 0.00656245 -0.0267814
0.0280055 0.00658511 -0.0247074
0.0156083 0.0593168 -0.0271307
0.0779734 0.0486544 0.0175938
-0.0185017 0.0129566 -0.0462853
0.0294538 0.00664492 -0.0227743
-0.00793282 0.0453928 -0.0577828
-0.00376887 0.0206028 -0.0499806
-0.0201805 0.0520783 -0.0527008
0.00603867 0.0145397 -0.0488793
0.0226953 0.00785681 -0.00444833
0.0228293 0.00791976 -0.00321623
-0.00395124 0.0134725 -0.0491159
-0.00199513 0.010101 -0.048687
0.0228621 0.00795754 -0.00250449
-0.0394916 0.0445981 -0.038081
-0.00784495 0.0079905 -0.0482924
0.0229344 0.00798901 -0.00188537
-0.0139812 0.00711404 -0.0461772
0.0231434 0.0306048 -0.0332111
0.0188864 0.0384538 -0.0315889
-0.0135077 0.00705661 -0.0461733
0.0775412 0.0475116 -0.0147372
-0.0130356 0.00712488 -0.0461701
-0.00637911 0.0568337 -0.0476194
-0.00445808 0.0465833 -0.0560942
0.0158002 0.0335403 -0.040068
-0.0125701 0.0070325 -0.0460553
0.0231924 0.0256099 -0.0363774
-0.0119714 0.00708927 -0.0461715
-0.0200954 0.030224 -0.0452039
0.0114055 0.00660985 -0.0460694
-0.0113749 0.00689674 -0.046289
-0.00801693 0.00670081 -0.0478144
0.0733877 0.0488439 0.0325554
-0.00706904 0.00665509 -0.0480754
-0.00199759 0.00656323 -0.0481496
0.0227837 0.0289625 -0.0341885
-0.00736067 0.0449694 -0.0508996
-0.00151088 0.00662111 -0.048215
-0.0330781 0.0454495 -0.0338778
-3.62639e-05 0.00653559 -0.0481719
0.000472938 0.00656076 -0.0481089
0.0226477 0.0475894 0.0120941
0.0144949 0.0264736 -0.0456569
0.0200399 0.0295624 -0.0377742
0.076983 0.0483611 0.0285113
0.000535637 0.00641344 -0.0479572
0.0214174 0.012451 -0.040722
0.000906462 0.00640691 -0.0478587
-0.00199959 0.0455274 -0.0537703
-0.0115216 0.0452386 -0.0555536
-0.00253787 0.0154893 -0.0493083
0.00349585 0.0064459 -0.0476915
0.0088898 0.0187959 -0.0490229
-0.0248858 0.0480329 -0.0401946
0.00900619 0.0154887 -0.0483206
0.0174336 0.0215363 -0.0440902
0.00393789 0.00647615 -0.047571
-0.000488444 0.0461976 -0.0612887
0.00402417 0.00632854 -0.0474442
-0.0195394 0.0453255 -0.0337978
0.0786388 0.0487323 0.010357
0.00449832 0.00643485 -0.0473052
-0.00953322 0.0204853 -0.0486128
0.00503094 0.00643097 -0.047065
0.0630329 0.0495118 0.0472463
0.00595821 0.00653075 -0.0467702
0.01948 0.0390376 -0.0303225
0.027323 0.0197086 -0.0231385
0.00646173 0.0065195 -0.046672
0.0114846 0.0220391 -0.0482754
0.0097053 0.0101773 -0.0469355
0.0190333 0.00645909 -0.0423294
0.00698579 0.00650597 -0.0466004
0.00951495 0.00620118 -0.0465259
0.0225408 0.0200938 -0.0382259
0.024461 0.0249803 -0.0346751
0.0109999 0.016489 -0.0480741
0.0213468 0.00621098 -0.0395215
0.0232194 0.006498 -0.0373626
0.0278427 0.0196358 -0.0284964
0.0235565 0.00651943 -0.0368023
0.0237314 0.00630895 -0.0364127
0.0229266 0.0470518 -0.0211156
0.0239787 0.00649489 -0.0362007
0.0246607 0.00641121 -0.0354143
0.024878 0.00645592 -0.0351733
0.0254726 0.00646754 -0.0342296
0.0256815 0.0065125 -0.0337279
0.0282278 0.0297688 -0.0264266
0.0200364 0.0475841 -0.0212255
0.0258873 0.00656986 -0.0332819
0.0269179 0.0190406 -0.0228335
0.0262976 0.00670081 -0.0280028
0.0692949 0.0482031 0.0176062
0.0268415 0.00673019 -0.0271692
-0.00355631 0.0161667 -0.0500311
-0.00905203 0.00958602 -0.0485852
0.0281002 0.00679877 -0.0252301
0.0255475 0.0467158 -0.0286669
0.0270133 0.0269541 -0.030361
0.0794952 0.0476593 -0.00577631
0.0294351 0.00694868 -0.0232662
0.0795145 0.0477534 -0.00720852
0.0296572 0.00687714 -0.0229455
0.0225668 0.00826172 -0.00255949
0.0226011 0.0083009 -0.00184692
-0.019395 0.0291751 -0.0459542
0.0111049 0.0140308 -0.0478595
-0.00955192 0.0293299 -0.0460448
0.022526 0.00848718 -0.00125512
-0.0180463 0.0140748 -0.0459838
0.0228284 0.00839887 1.64257e-05
0.00198212 0.014391 -0.0486232
-0.0142781 0.0072469 -0.0462331
-0.0171392 0.041819 -0.0336822
-0.0294892 0.0454957 -0.0398887
0.0184834 0.0315307 -0.0061295
-0.0112208 0.00713187 -0.046431
-0.0105801 0.047608 -0.0364193
0.0164872 0.0231575 -0.0443364
-0.00830241 0.00694918 -0.0478637
0.0278361 0.0200017 -0.021803
-0.00793124 0.00704606 -0.0480536
-0.0350476 0.0450242 -0.0392103
-0.00555494 0.00696164 -0.0480961
0.0286471 0.0250729 -0.0288403
-0.00487234 0.00694618 -0.0479618
0.0140032 0.0205594 -0.0465903
0.00607751 0.0179863 -0.0495785
-0.00451857 0.00693241 -0.0479885
-0.00398955 0.00679354 -0.0480295
0.0227219 0.0239507 -0.0369378
-0.0111666 0.00879352 -0.0474389
0.0146446 0.0365586 -0.0393111
0.0765248 0.0473825 -0.0152277
-0.00349885 0.00689461 -0.0480349
-0.00301607 0.0259975 -0.0486222
-0.0196438 0.033516 -0.042807
0.00316483 0.00656349 -0.0478249
0.0765519 0.0494099 0.014406
0.00802866 0.00658132 -0.0466334
0.00552639 0.0120443 -0.0477316
0.0239362 0.0115178 -0.0378186
0.00851455 0.00656066 -0.0466992
0.00150724 0.0291606 -0.048551
0.00904198 0.00650498 -0.0467027
0.0100288 0.00641124 -0.0464601
0.0670392 0.04868 0.031315
0.0116094 0.00646391 -0.0459132
0.0124443 0.00649007 -0.045614
0.0273867 0.025494 -0.0308767
-0.00795536 0.0448474 -0.0538987
0.0130815 0.00648319 -0.0453615
0.000399814 0.0579933 -0.0376433
-0.00548926 0.0490049 -0.0288614
0.0140286 0.00646254 -0.0451611
