ply
format ascii 1.0
comment Created by Open3D
element vertex 1524
property float x
property float y
property float z
end_header
0.00912755 0.0170021 -0.0184761
-0.0356993 0.0455759 0.0386329
0.00839267 0.0166657 -0.0209365
0.00831068 0.0490294 -0.0713945
0.00871481 0.0166657 -0.0214945
-0.0443514 0.0459641 0.0140189
0.00887587 0.0166657 -0.0217735
0.01221 0.0169459 -0.0229484
0.0132791 0.017019 -0.0236001
0.0086746 0.0376237 -0.00382488
0.0143524 0.0170921 -0.0242592
0.0146144 0.0171043 -0.0245129
0.00546778 0.0171369 -0.0134705
0.0152348 0.0408773 -0.0139874
0.0205164 0.047942 -0.0361354
0.0149735 0.0171287 -0.0247348
0.0141564 0.0274978 -0.0205195
0.0177804 0.048558 -0.0389966
0.0154988 0.017153 -0.0252447
0.0166231 0.0195984 -0.0253919
0.0221822 0.0496321 -0.0415207
0.0026328 0.0327589 -0.00836015
0.0158303 0.017153 -0.025819
0.0034458 0.0200761 -0.0097683
0.00265197 0.0476317 -0.00889337
0.0160936 0.0171652 -0.0260749
-0.00124148 0.0479683 -0.0728497
0.0162448 0.017153 -0.0265368
0.00154972 0.0181696 -0.0106842
-0.00855804 0.049553 -0.047377
0.0172211 0.0171713 -0.0279278
0.00629349 0.0481649 -0.0633006
0.0177008 0.0171896 -0.0284585
-0.00935437 0.0525243 0.00700224
0.0161382 0.0482458 -0.0679523
-0.0124086 0.0490973 -0.0729577
0.0182458 0.0172261 -0.0288027
0.0187086 0.0172627 -0.0290042
0.0115747 0.0574657 -0.015848
-0.00260413 0.0481865 -0.0794229
-0.0371618 0.0453984 0.0401661
0.00994994 0.0435891 -0.000433821
0.019271 0.0173114 -0.0291783
0.0199029 0.017348 -0.0296729
-0.00231237 0.0164539 -0.0109949
0.00580259 0.0266999 -0.0148504
0.0189058 0.0552232 -0.0209457
-0.00180861 0.0164912 -0.0112674
0.00551657 0.022612 -0.014155
-0.0576724 0.0546784 0.0202915
-0.000774518 0.0165905 -0.0114585
0.000444156 0.0167147 -0.0115693
0.00588619 0.0460887 -0.0059952
0.00292733 0.0722872 0.00352971
0.0124125 0.0646292 -0.023899
0.0132394 0.046946 -0.0155313
-0.05226 0.0455126 0.0255837
0.00166754 0.0168389 -0.0116883
0.00474125 0.0170934 -0.0129121
0.00950785 0.060605 -0.0116681
0.00530529 0.0171369 -0.013189
0.00632392 0.0171866 -0.0141533
0.00804467 0.0172859 -0.0155338
0.00907365 0.0173356 -0.016516
0.00781377 0.0305929 -0.0163339
0.0093202 0.0173356 -0.0169431
0.00408706 0.0325454 -0.012679
-0.0163266 0.047561 0.0458784
0.00639123 0.04664 -0.00346995
0.00939082 0.0172797 -0.0179653
0.00878561 0.0171245 -0.0194171
-0.0343466 0.0460653 0.00404001
0.00857034 0.0170748 -0.0198443
0.00845885 0.0171365 -0.0212512
0.0100793 0.0611628 -0.0139579
0.00664375 0.0695373 -0.003974
0.00480504 0.0467104 -0.00542258
0.00871481 0.0171489 -0.0214945
0.00887587 0.0169879 -0.0217735
0.000903471 0.0482634 -0.00596487
0.0111451 0.017199 -0.022304
0.0121421 0.0172859 -0.0226307
0.0131423 0.0173728 -0.022963
0.00930722 0.0390993 -0.00542058
0.0158473 0.0486075 -0.0684483
0.012993 0.0490961 -0.0705046
0.0143803 0.0174473 -0.0239074
0.0235517 0.0480456 -0.0368926
0.0151672 0.0174846 -0.0246704
-0.00784072 0.0488941 -0.0452195
0.0161911 0.0175094 -0.0260438
0.006546 0.0459422 0.004862
0.016697 0.0211104 -0.0231201
0.0167421 0.0176504 -0.0273982
0.0195509 0.0495963 -0.0398632
0.0169478 0.017693 -0.0279545
0.0171566 0.0174846 -0.0281161
0.0102875 0.0426879 -0.00241851
-0.0587703 0.0460733 0.00704315
0.0116199 0.0425986 -0.00772627
0.0177526 0.017497 -0.0289483
-0.0417271 0.0452571 0.0284735
0.0373959 0.0489152 -0.0495717
0.00155436 0.0581257 0.00310774
0.0102824 0.0442409 -0.00287628
0.018116 0.0175219 -0.0291778
-0.000751709 0.0170882 -0.011098
-0.0526759 0.0454912 0.0238373
0.00928666 0.0550587 -0.010485
0.0148124 0.0250956 -0.020456
-0.000323667 0.0169684 -0.0112394
0.0125109 0.0438105 -0.00806945
-0.0237887 0.0462184 0.0462032
0.000195386 0.017019 -0.0113384
0.00478066 0.0176658 -0.0124803
-0.0202567 0.0600452 -0.00291437
0.00825955 0.0475548 -0.013306
0.00534966 0.0175915 -0.0129325
0.00573284 0.0174871 -0.0135296
-0.00375496 0.0466918 0.00240378
0.0136279 0.0475636 -0.0356043
0.0232207 0.0491224 -0.0744194
0.00701945 0.0175631 -0.0145581
0.00731091 0.0175694 -0.0149628
0.00924549 0.0449789 -0.00041367
0.00282895 0.0326056 -0.0108999
0.00788078 0.0176137 -0.0152499
0.00826611 0.0176327 -0.0156174
-0.0540627 0.0501854 0.0178393
0.00618826 0.0276078 -0.0156183
0.00951843 0.0177023 -0.0166864
0.0237508 0.049042 -0.0438877
0.00958956 0.0176896 -0.0170096
-0.0396193 0.0454266 0.0332226
-0.000665741 0.0469253 -0.0494469
-0.0182042 0.0473191 -0.0540694
0.00961367 0.0176264 -0.0180514
0.00968363 0.0176137 -0.0183725
0.00911564 0.0176564 -0.0192888
0.0060668 0.0384278 0.00159198
0.00875915 0.0174239 -0.0197713
0.00840139 0.0175157 -0.0202517
0.00906611 0.0173353 -0.021703
0.00445923 0.0211127 -0.0107236
0.0178486 0.0602561 -0.0129147
-0.00471482 0.0480372 -0.0754337
0.0130115 0.0690851 -0.0145366
-0.000675142 0.0521932 -0.00643063
0.00965598 0.0175541 -0.0218247
0.0103899 0.0176308 -0.0218959
-0.00109917 0.0530279 0.00210383
0.0109821 0.0175251 -0.0220215
0.00888709 0.0473581 -0.0403929
0.0122653 0.0176517 -0.0222441
0.0128128 0.0177023 -0.0223924
-0.00452515 0.0472866 -0.0474622
0.018485 0.0254124 -0.0232169
0.0136752 0.0184793 -0.0220862
-0.0154483 0.0481672 0.0448573
0.0106456 0.0595836 -0.00203872
0.00820451 0.0353887 -0.0126106
-0.00040395 0.0529711 0.000599659
0.00781138 0.059485 -0.0027297
0.0133573 0.047518 -0.0230022
0.000273746 0.0487428 -0.0762741
0.0133613 0.0177529 -0.0225424
0.0141726 0.0178162 -0.0229476
0.0101771 0.0762884 -0.00802731
0.0146005 0.0178288 -0.0234889
0.017226 0.0177718 -0.0289363
0.0314708 0.0478806 -0.0349091
0.0178542 0.0177782 -0.0299245
0.0179205 0.0177655 -0.0302393
-0.000549037 0.0193206 0.0207509
0.00380055 0.0348612 -0.00388276
0.0086072 0.0372104 -0.0095081
0.000375968 0.0173615 -0.0112512
0.00291044 0.0350047 0.00155897
0.0187575 0.0480708 -0.0379889
-0.00216052 0.051965 0.0165421
0.00159841 0.0174904 -0.0113685
0.00316826 0.017645 -0.0116876
0.0411445 0.0496578 -0.0714644
-0.00688107 0.0474966 -0.0448816
0.00636576 0.0180534 -0.0134258
0.00678478 0.0180664 -0.0139516
3.03555e-05 0.0564619 0.0041474
0.00351229 0.0391302 0.00871651
0.00685603 0.0178899 -0.014275
0.000364975 0.0567965 0.00356783
-0.0180082 0.0572723 -0.00280887
0.00746046 0.0179286 -0.0147219
0.00909575 0.0181834 -0.0161543
0.0166784 0.0200705 -0.0258879
0.0096119 0.0180446 -0.0166483
0.00163267 0.0466681 -0.0520279
0.0160271 0.0494378 -0.0674597
-0.000196051 0.0224975 0.0201395
0.00977673 0.0180446 -0.0169338
0.00989548 0.0181574 -0.0179395
0.0254903 0.0477553 -0.0359504
0.00242854 0.0335303 -0.00700637
0.00956499 0.0179028 -0.0187671
0.0082691 0.0175935 -0.0213225
0.010841 0.0463539 -0.00657708
0.0112685 0.0180533 -0.0219176
0.0119099 0.0179544 -0.0220285
0.0127438 0.0180446 -0.0220729
0.0126298 0.0551596 -0.0148755
-0.0402132 0.0467051 0.0131513
-0.0065132 0.0473337 -0.0487188
0.0137884 0.0715414 -0.0134822
0.0132919 0.0180962 -0.0222223
-0.00185747 0.0473264 -0.0543828
0.00434019 0.0690278 0.0104825
0.0080243 0.0462214 0.00410148
0.00632225 0.0535631 -0.00615047
-0.0484448 0.0457908 0.0179089
-0.0298719 0.0475242 -0.0567938
0.013841 0.0181477 -0.0223733
0.0151658 0.018225 -0.023468
0.0154156 0.018225 -0.0239005
0.01644 0.0181735 -0.0264749
0.00631163 0.0475016 -0.0445321
0.0164935 0.0181477 -0.0269675
-0.0205712 0.0580994 -0.000369565
0.0171255 0.0181219 -0.0284623
0.0171767 0.0180962 -0.0289509
0.0174246 0.0180962 -0.0293803
-0.0173094 0.0476216 0.0457808
-0.0208485 0.061937 -0.00448941
-0.000710062 0.0196474 0.0206299
0.000917698 0.0177574 -0.0109895
0.00837732 0.0455418 0.00249004
0.00143864 0.0178099 -0.0110918
0.00248332 0.0179149 -0.0113012
0.00807053 0.0179543 -0.0203786
0.00243155 0.0484687 -0.0129116
-0.0212077 0.0445529 0.0495327
0.00322399 0.0179871 -0.0114841
-0.000464014 0.0582885 0.00740369
0.0243007 0.0500756 -0.05749
0.00387543 0.0180462 -0.0117124
-0.00149783 0.0536881 -0.000605672
0.00431065 0.0180855 -0.0118663
-0.056861 0.0529645 0.0250862
0.0047466 0.0181249 -0.0120214
0.0230531 0.0492177 -0.0779291
0.00560073 0.0181774 -0.0127008
0.0188562 0.0570363 -0.0272599
-0.0018098 0.0614047 0.00853466
0.00594721 0.0182037 -0.0129009
0.00620233 0.0182168 -0.0131428
0.0067133 0.018243 -0.0136278
0.00616386 0.0316093 -0.0145761
0.00431223 0.0473013 -0.045069
0.00755299 0.0182693 -0.0146822
0.0151842 0.0196676 -0.0218998
0.00815906 0.0183087 -0.0151319
0.00965863 0.0185458 -0.0166292
0.00416937 0.020616 -0.0103215
0.00987032 0.0185524 -0.0168959
-0.0161127 0.0695458 0.016108
0.00994157 0.0183743 -0.0172193
0.0263253 0.0477609 -0.0393968
0.00926882 0.038612 -0.00255408
0.0100595 0.0185326 -0.0175235
-0.0433986 0.0460451 0.0139685
0.00947082 0.0182168 -0.0188039
0.00611554 0.0408657 0.00420756
0.00775838 0.0178887 -0.0208379
0.0215931 0.0555097 -0.0259004
0.0130606 0.0270775 -0.0195216
0.00807764 0.060294 -0.0025909
0.00780457 0.0179649 -0.0213846
-0.0425303 0.0453979 0.0320647
0.0127749 0.0438404 -0.00832684
0.0133266 0.0488958 -0.0782824
0.0115695 0.0475418 -0.00793904
0.00842982 0.0179149 -0.0216009
0.00529571 0.0470047 -0.00347245
-0.000548568 0.0350292 0.00775014
0.0097036 0.0180462 -0.0218071
-0.0222513 0.0471289 -0.0639796
-0.0017547 0.0517789 -0.00336079
0.012101 0.0183087 -0.0219596
0.0142248 0.0185318 -0.022238
0.0147752 0.0185843 -0.0223915
0.0292652 0.0502744 -0.0714888
-0.0391261 0.0463935 0.0391684
-0.00297663 0.0468756 -0.0508443
0.0126746 0.0190472 -0.021753
-0.0547612 0.0495829 0.0215492
0.0151343 0.0186105 -0.0226134
0.0156352 0.0186105 -0.0234809
0.0158372 0.018604 -0.0239309
0.0160392 0.0185974 -0.0243807
0.0186612 0.0487482 -0.0733223
0.0165865 0.0185252 -0.0264288
-0.00915396 0.0495514 -0.0518448
0.0118517 0.0430457 -0.00742771
0.0166402 0.018665 -0.0269217
-0.0127814 0.0484331 -0.062662
0.0037834 0.0349866 -0.00815304
0.0166931 0.0186384 -0.0274133
-0.0116793 0.0629705 -0.00477091
0.0169417 0.0186385 -0.0278439
0.0177057 0.0185855 -0.0299673
0.0120411 0.0660974 -0.0193225
0.0147775 0.0281241 -0.021462
0.0177223 0.0184005 -0.0302959
0.00853733 0.0410729 -0.00098709
-0.00080592 0.0200132 0.0209959
-0.000911357 0.0201423 0.0204785
0.017655 0.0756294 -0.0309794
0.0108247 0.031595 -0.0184489
-0.000868682 0.0200616 0.0192046
-0.00035138 0.0201674 0.0190086
0.0321305 0.0492656 -0.0720516
-0.021392 0.0572402 0.00045196
0.00913163 0.0204899 -0.0184165
-9.98229e-05 0.0179959 -0.0104271
0.000509037 0.0180627 -0.0104817
-0.0202299 0.0476888 0.0459392
0.00102891 0.0181161 -0.0105821
0.00420366 0.0185925 -0.011381
-0.0224151 0.0473642 -0.0621759
0.0057839 0.0185303 -0.012618
0.00616653 0.0185503 -0.0129807
0.0066775 0.0185771 -0.0134658
0.0072252 0.0185971 -0.0141144
0.00738909 0.0185971 -0.0143983
-0.0172747 0.048075 0.045654
0.00803092 0.0606407 -0.01051
0.00764552 0.0186104 -0.0146424
-0.0037183 0.0523358 -0.00535972
0.00918899 0.0186906 -0.0161158
0.0134217 0.0504039 -0.0318471
-0.00621964 0.0531793 0.00550607
0.0069531 0.0296158 -0.0163432
0.0089742 0.0184501 -0.0193438
0.0118476 0.0466238 -0.0130205
-0.00686793 0.0474486 -0.0483711
0.0161899 0.0483745 -0.0390417
-0.0156923 0.046185 0.0460798
-0.0412647 0.0466836 0.0120725
0.00744505 0.0181428 -0.0212952
0.00989405 0.0185589 -0.0217371
0.00783709 0.0395542 -0.000774256
-0.0041486 0.047236 -0.0568144
0.00423637 0.0355025 0.000562374
-0.00357507 0.0529901 0.0061922
0.00158531 0.0484919 -0.0765458
0.0107713 0.0186601 -0.0217565
0.0114594 0.0185704 -0.0218483
0.0147045 0.0190982 -0.0220689
0.0107849 0.0596348 -0.01688
0.0153391 0.0191518 -0.0223683
0.03873 0.0496693 -0.0708823
0.0113703 0.0487827 -0.015394
0.00919194 0.020236 -0.0175209
0.0157461 0.019162 -0.022923
0.0202303 0.0483672 -0.0292399
0.0159954 0.0189711 -0.0237049
0.0110004 0.0273924 -0.0178533
0.000686415 0.0221445 0.0186111
0.0163729 0.019098 -0.0249586
0.0164425 0.0190844 -0.0252792
0.000446585 0.0326809 0.00322647
0.00317432 0.0210746 -0.00899808
0.0165605 0.0190778 -0.0255836
0.00954803 0.0476007 -0.0265377
0.0183722 0.048576 -0.0390215
0.0166109 0.0190272 -0.026421
-0.0350689 0.0463116 0.0349411
0.0156738 0.0290231 -0.0229478
0.0240277 0.0501393 -0.0446173
-0.00132172 0.0477323 -0.0629107
-0.00080592 0.020366 0.0209959
-0.00101762 0.0202708 0.0199625
-0.0496138 0.0457202 0.0161336
-0.00100356 0.0202436 0.0195382
0.00225004 0.0485023 -0.0059972
0.00406569 0.0670573 0.011558
-0.000396444 0.0183403 -0.00951333
0.000280485 0.0183946 -0.00988583
0.000709601 0.0184354 -0.0100291
0.00427772 0.0347604 -0.0108092
0.00166011 0.0185306 -0.0102754
0.00573141 0.0472115 -0.0435271
0.0164017 0.0656113 -0.0280086
-0.0212265 0.0435856 0.0500154
0.00286575 0.0186394 -0.0107636
-0.0528737 0.0546703 0.01958
-0.00317397 0.0471189 0.00199747
0.00468487 0.0188025 -0.0115145
0.0166931 0.045428 -0.0115134
0.00581667 0.0190374 -0.0124248
0.0138205 0.0251427 -0.0194713
0.00630415 0.0190615 -0.0129191
0.00670048 0.0190716 -0.0134556
-0.0520152 0.0455343 0.016093
0.00696913 0.0189113 -0.0138709
0.00738909 0.0190888 -0.0143983
0.0117918 0.0268063 -0.0184239
0.0123816 0.0641109 -0.0225456
0.00780953 0.0191025 -0.0149265
-0.01294 0.0475048 -0.0575872
0.00858055 0.0191436 -0.015662
0.0291091 0.0505015 -0.0716184
0.00159859 0.0469585 -0.0435688
0.00944706 0.0190336 -0.0163628
-0.0224563 0.0460907 0.0472954
0.00155052 0.0661092 0.00271441
0.00679681 0.0401337 0.000227575
-0.0476712 0.0464142 0.00816901
0.00970536 0.0190472 -0.0166102
0.0101064 0.0190336 -0.0175048
0.00998942 0.0189928 -0.0179022
0.00777298 0.0187079 -0.0213965
0.00611771 0.0311104 -0.0145962
0.00861981 0.018585 -0.02153
0.016982 0.0210513 -0.0244137
0.0110707 0.0489447 -0.0158751
0.0167989 0.0544823 -0.0298965
-0.0359021 0.0450575 0.0429843
-0.0533186 0.0456118 0.0205506
0.00916123 0.0186394 -0.0216677
-0.00114208 0.0546579 0.00207815
0.0137412 0.0540501 -0.0146004
-0.0436836 0.0459722 0.0270622
0.0118413 0.0189521 -0.0217097
0.0135094 0.0191424 -0.021799
-0.0250456 0.0472841 0.0427803
0.00841619 0.0492226 -0.0153773
0.0161533 0.0193395 -0.0234783
0.0167911 0.0191492 -0.027383
0.00372848 0.0476564 -0.00485792
0.00619325 0.0411429 0.00607297
0.0170583 0.0191288 -0.0281458
0.0173246 0.0191084 -0.028907
0.00473152 0.0352129 -0.0105952
0.0176555 0.0191084 -0.0294803
0.00207734 0.0489338 -0.0785981
0.0179532 0.0191152 -0.0298959
0.00224773 0.0610738 0.00470681
0.000917879 0.0477076 -0.0548899
-0.000982296 0.0207187 0.0213014
-0.000328987 0.0206496 0.0191698
-0.0466875 0.0456344 0.0305651
0.008578 0.0375462 -0.00425754
0.00026626 0.0206911 0.0187388
0.000230632 0.0187547 -0.00919947
0.000784296 0.0188031 -0.00945846
-0.000885241 0.0585032 0.00753326
0.00229131 0.0189484 -0.00996868
-0.00297754 0.0518866 -0.00404276
0.00384295 0.0190867 -0.0106562
0.0259633 0.0477618 -0.0407698
0.0078344 0.0495556 -0.0152695
0.00453144 0.019142 -0.0110487
-0.044288 0.0460283 0.0130092
0.00937214 0.0735443 -0.00803303
0.0115889 0.0427667 -0.00887262
0.0099031 0.0349576 -0.0163527
0.0208401 0.0487685 -0.0734961
0.00478537 0.0191558 -0.0112885
0.0222291 0.0474902 -0.0319021
-0.00755289 0.0490284 -0.044518
0.00914237 0.0195072 -0.016135
-0.0217796 0.0471363 -0.0719338
0.00965863 0.019535 -0.0166292
0.032 0.0478806 -0.0358255
0.0148009 0.0260847 -0.0206359
0.0030768 0.0482236 -0.0700292
0.010129 0.019391 -0.0171439
0.000270524 0.0525953 0.00273143
0.0101064 0.0193633 -0.0175048
0.00668385 0.0477141 -0.0455767
0.0100598 0.019308 -0.0182242
-0.0115458 0.0581255 0.0108979
-0.00863833 0.0478042 -0.076838
0.00766373 0.0188377 -0.020874
-0.0558686 0.0469287 0.0133673
0.00871481 0.0190818 -0.0214945
0.0136317 0.0266244 -0.0200108
0.00939903 0.0191585 -0.0215796
0.00273381 0.0476564 -0.00313509
0.010275 0.0191005 -0.0215968
0.0112958 0.019225 -0.0215648
-0.0150706 0.0591154 -0.00439697
0.00188454 0.0470281 -0.0422641
0.0101 0.0488398 -0.0704937
0.0138923 0.0195293 -0.0216621
0.0130357 0.0487151 -0.0723785
0.00438866 0.0456494 0.0055986
0.0155437 0.0196952 -0.0221225
0.00956675 0.0502088 -0.0173701
-0.00569344 0.0472245 -0.0494387
0.00438004 0.045378 0.00721353
0.0301958 0.048037 -0.0424006
-0.0489846 0.0461532 0.0136438
0.0158915 0.0197091 -0.0225248
0.0163464 0.0197022 -0.0234129
-0.000411063 0.049957 -0.00148802
0.0165588 0.0196607 -0.0243807
0.0111885 0.0280945 -0.0177791
0.016663 0.01964 -0.0264613
-0.00102838 0.0522026 0.0139812
0.0166891 0.0196676 -0.0269064
0.0167666 0.0196432 -0.0273907
0.025925 0.0482655 -0.0251034
0.0173912 0.0555083 -0.0307224
0.0201948 0.0573335 -0.0175783
-0.0570561 0.0458168 0.00982407
0.0172732 0.0196328 -0.028418
0.0173404 0.0196189 -0.0287343
0.0176046 0.0196328 -0.028992
0.017842 0.0195798 -0.02937
-0.00714547 0.0511189 -0.0484237
0.000279394 0.0524095 0.00351605
-0.00107852 0.0210855 0.021668
0.0180113 0.0481874 -0.0161966
-0.0538091 0.0455789 0.0151001
-0.000982296 0.0210715 0.0213014
-0.0102181 0.0585647 0.00989831
-0.000167008 0.0210293 0.0192893
0.00907648 0.0481623 -0.0270209
0.00116208 0.0192076 -0.00891279
0.00377683 0.0359286 0.00205833
0.00755299 0.0199082 -0.0146822
0.00299434 0.0193554 -0.00998638
-0.00110849 0.0471599 -0.000380044
0.00865381 0.0321072 -0.0169222
0.00406957 0.0196096 -0.0105487
-0.00323026 0.0478373 -0.073005
0.00427189 0.0481134 -0.0153991
0.00492187 0.0196663 -0.0112249
0.0190635 0.0556201 -0.0154189
0.00580353 0.0195382 -0.012252
0.00605866 0.0195523 -0.0124939
0.00738909 0.0195804 -0.0143983
0.00455838 0.0400625 0.00610465
0.0107994 0.0600708 -0.0195052
-0.00271092 0.0471 -0.0410046
0.00797354 0.0195945 -0.0152106
0.0083233 0.0196226 -0.0154164
0.00874492 0.0196367 -0.0159467
0.00980154 0.0196226 -0.0179768
0.00958957 0.0195664 -0.0184096
-0.0363294 0.0459879 0.0200244
-0.00871579 0.0541519 -0.0435038
0.00500156 0.047199 -0.039263
-0.0544575 0.0553878 0.0173231
0.00795344 0.0320964 -0.0162757
0.00918829 0.019482 -0.0189146
0.00847593 0.0193272 -0.0198807
0.00766373 0.0191584 -0.020874
0.0298886 0.0498728 -0.0730686
0.00776213 0.0191373 -0.0213444
0.00551657 0.0230984 -0.014155
0.0103702 0.0196025 -0.0215618
0.015376 0.0200306 -0.0218321
-0.0113066 0.0554144 0.0104836
-0.00171999 0.046924 -0.0515209
0.0144878 0.0244412 -0.0196935
0.0167482 0.0200576 -0.0254088
0.0014007 0.0474085 -0.00422608
0.0156398 0.0200446 -0.0220889
0.0144621 0.0240023 -0.0168491
0.0247107 0.0245005 -0.0244002
-0.00161741 0.0534195 0.00160142
0.0162395 0.0200587 -0.0229277
0.016682 0.0200376 -0.0239939
0.0166425 0.0201628 -0.0245257
0.00740549 0.0540281 -0.00822669
-0.0156932 0.0471616 0.0455814
0.0063726 0.0317833 -0.0148377
-0.0230704 0.0482606 0.0431591
0.0166727 0.0200928 -0.0263447
-0.000982296 0.0216006 0.0213014
0.00628546 0.0452142 0.00511327
-0.00733349 0.0480042 -0.045998
-0.00159787 0.04959 -0.0598324
-0.000704988 0.0216354 0.0204878
0.0335669 0.0489924 -0.0743396
-0.000647383 0.0215502 0.0200213
0.0152802 0.0226226 -0.0213995
-0.000212895 0.0560675 0.00596875
-0.00068056 0.0213527 0.0197788
0.00015581 0.0499813 -0.0778699
0.00200117 0.0307722 -0.0104661
-0.000230365 0.0216258 0.0195323
-0.0620117 0.0471845 -0.0025926
-0.00928084 0.0477422 -0.0624251
0.0112826 0.0218103 -0.017742
0.000526613 0.0636868 -0.00171213
0.0130032 0.0488981 -0.0789222
-0.000167008 0.0213813 0.0192893
0.00517623 0.0200072 -0.0114655
0.0108558 0.0478944 -0.0118028
0.00538521 0.0200144 -0.0117275
-0.00627486 0.0475467 -0.0704316
0.0061665 0.0200216 -0.0129807
-0.0024859 0.0479113 0.0219057
0.00641173 0.0200216 -0.0134054
0.0233119 0.0493372 -0.0763774
0.00662124 0.0198653 -0.0136683
0.0066353 0.0479586 -0.0364927
0.0022471 0.0606919 0.0045079
0.00673031 0.0200833 -0.0138572
0.00767056 0.0200649 -0.0149858
0.0328014 0.0482715 -0.0434137
0.00792716 0.0200792 -0.0152303
0.00908267 0.0460366 -0.00553166
-0.0077031 0.0471464 -0.0615578
0.00890928 0.0201298 -0.0162313
0.00932017 0.0201297 -0.016943
0.0068804 0.0461726 -0.00511721
0.0169383 0.0239024 -0.022338
-0.00856878 0.0480913 -0.0731584
0.00960202 0.0199583 -0.0175312
0.00925008 0.0200431 -0.0180216
-0.000146278 0.0525953 0.00345335
0.00921333 0.0198367 -0.018558
0.000354703 0.0340418 0.0026523
0.0088116 0.0197509 -0.0190621
0.00850273 0.0196794 -0.0195272
0.00778695 0.0196827 -0.0204874
0.0132376 0.0476373 -0.0380281
0.0293239 0.0493137 -0.0749904
0.0170527 0.0274077 -0.0247361
-0.0590174 0.0465689 0.00902114
0.0147046 0.0235727 -0.0183693
0.00739766 0.0195746 -0.0213131
0.0189954 0.0611509 -0.027901
0.00935147 0.0196365 -0.0215972
0.0112958 0.0200432 -0.0215648
0.0106228 0.035062 -0.0193992
0.0131525 0.0201085 -0.0215808
-0.0508373 0.0457246 0.0265527
0.0313694 0.0478147 -0.0373335
0.00832288 0.0391468 -0.0120156
0.015328 0.0205263 -0.021849
0.0159518 0.0205697 -0.0223294
-0.0392836 0.0461884 0.0131912
0.0161197 0.0205697 -0.0226203
0.0166891 0.0201657 -0.0269064
0.0167911 0.0201443 -0.027383
-0.0153758 0.0445864 0.0454317
0.0172593 0.056117 -0.029094
0.0171566 0.0201371 -0.0281161
-0.00125501 0.0217915 0.0219737
-0.0554287 0.0525543 0.0210053
0.00995447 0.0466973 0.00155833
0.000605085 0.021777 0.018552
0.0189725 0.0478563 -0.0358614
-0.0397351 0.0465932 0.0131564
0.0013952 0.0199017 -0.00861657
0.0140585 0.0471268 -0.0219501
0.00568166 0.0455515 0.00495905
0.0018165 0.0199307 -0.00894629
0.0187037 0.0233237 -0.0241957
0.0257167 0.047534 -0.0335426
0.0217635 0.0476725 -0.0299955
0.00232845 0.0199744 -0.00923299
-0.0221516 0.0473008 -0.0596322
0.0103546 0.0390037 -0.0129348
0.00276038 0.020018 -0.00938113
-0.00431127 0.0474422 -0.0419327
0.00301268 0.0200325 -0.00961813
0.0225884 0.0564047 -0.0229243
-0.0534374 0.0527957 0.0175563
0.00395205 0.0201052 -0.0102451
0.0188676 0.0608547 -0.0282796
-0.0077622 0.0475918 -0.0514755
0.00471318 0.0201488 -0.0109635
0.00685603 0.0201779 -0.014275
0.0160949 0.027585 -0.0229772
0.00886215 0.0201343 -0.0183497
0.008649 0.0200761 -0.0187805
0.0117387 0.0470332 -0.013432
0.00828023 0.0199817 -0.0194418
0.00872685 0.0720696 0.00168464
0.00790946 0.0198871 -0.0200996
0.00863428 0.0200482 -0.021355
-0.00875799 0.0479748 -0.0768308
0.00963681 0.0200034 -0.0214915
0.0104655 0.0201052 -0.0215267
0.0109006 0.0366152 -0.0128804
-0.0253336 0.0463966 0.043879
0.0170259 0.0206721 -0.0250897
0.0062906 0.0485658 -0.0649623
-0.0466266 0.0457037 0.0191597
-0.00545292 0.0470319 -0.0507553
0.0176531 0.0207158 -0.0255761
0.0162056 0.0480291 -0.0300688
-0.0156225 0.0450839 0.0456589
-0.000629544 0.0221297 0.0206904
0.000156935 0.0221445 0.0195282
0.00166395 0.0202684 -0.00848206
0.00409752 0.0497049 -0.0124971
0.00294049 0.0203718 -0.00929308
0.00454999 0.0206384 -0.0106808
0.00460779 0.0225638 -0.0118476
0.0204409 0.0580716 -0.0160047
0.00492187 0.0206457 -0.0112249
0.00508512 0.0206457 -0.0115077
0.00560739 0.020579 -0.012579
0.00580965 0.0206308 -0.0129626
0.000540659 0.0465643 -0.0479365
0.00706566 0.0206756 -0.0145381
0.00788078 0.0205638 -0.0152499
0.0163726 0.0221354 -0.0223582
0.00830157 0.0205786 -0.0157787
0.00906849 0.0204161 -0.0193071
-0.0204495 0.0595817 -0.000980492
0.00842089 0.0202388 -0.0205854
0.00928481 0.0202979 -0.0212818
0.00699782 0.0217807 -0.0149206
0.00992216 0.0203718 -0.0213857
0.000115698 0.064673 -0.00100041
0.0123187 0.0206672 -0.0215365
-0.00139995 0.0629814 0.0104248
0.0130569 0.0207559 -0.0216152
0.0220267 0.0800471 -0.0297513
0.0153997 0.0491922 -0.0702731
0.0138923 0.0208593 -0.0216621
-0.00304203 0.0481825 0.00226893
0.00768833 0.0531343 -0.00901659
0.014873 0.0211522 -0.0216608
0.0152801 0.0210218 -0.0218659
0.0118512 0.0486031 -0.072127
0.0164324 0.0210956 -0.0228617
-0.0525433 0.0541807 0.0176077
0.010647 0.0290065 -0.0176411
0.0167686 0.0210956 -0.0234441
0.0170692 0.021103 -0.0238647
0.00804467 0.0208916 -0.0155338
-0.0597877 0.0458376 0.00235526
0.00871534 0.021021 -0.0164288
0.00937934 0.0209216 -0.0174455
0.00990671 0.0209141 -0.018459
0.00991712 0.0208766 -0.018977
0.0100809 0.0208766 -0.0192606
0.0117932 0.0563816 -0.0132265
0.00974594 0.0207715 -0.0200805
0.00969232 0.0207115 -0.0207876
-0.0387602 0.0457021 0.0199347
-0.0223956 0.0443503 0.0513904
0.0102348 0.0207715 -0.0209272
-0.0225535 0.0480089 -0.0657362
0.0112273 0.0208766 -0.0212463
0.017927 0.0483445 -0.0386504
0.0118679 0.0209516 -0.0213558
0.00969232 0.0489834 -0.0207876
0.00913796 0.0734895 -0.00242742
0.025572 0.0251449 -0.024492
0.0133437 0.0211317 -0.0215119
-0.0177861 0.0690785 0.0174064
-0.019492 0.0476294 -0.0524389
0.0055507 0.0483157 -0.0638141
0.0140837 0.0212218 -0.0215936
0.0027115 0.0469771 -0.0424965
0.0192906 0.0604389 -0.0278123
0.014301 0.0454149 -0.0119702
0.015472 0.0215547 -0.0217983
-0.047823 0.0453849 0.0234319
-0.0572286 0.0457794 0.0075628
0.0157358 0.0215698 -0.0220553
0.0159999 0.0214169 -0.0223127
0.0137268 0.0286481 -0.0199756
0.0162082 0.0216561 -0.0224733
-0.045069 0.0458621 0.0100619
0.0172754 0.021653 -0.0236219
0.0173955 0.0214769 -0.0239299
0.00152395 0.0478563 -0.00563959
-0.0225308 0.0446337 0.0512245
0.00767315 0.0325981 -0.0156903
0.00832691 0.0606621 -0.0109226
-0.0421543 0.0454932 0.0319133
0.00346354 0.0210822 -0.00939903
0.0100359 0.0324108 -0.0185826
0.0146672 0.0486244 -0.0769043
-0.0135201 0.0480529 -0.0753825
0.00413309 0.0211127 -0.0101587
0.00471318 0.0211279 -0.0109635
-0.0191248 0.0686895 0.0186251
0.00510178 0.0210974 -0.0120365
0.00646269 0.0411569 0.00320631
0.0131682 0.0691756 -0.013008
0.0053462 0.0210974 -0.0124599
0.00718288 0.0211584 -0.0148411
0.0111769 0.0431632 -0.00545884
-0.00589824 0.0474241 -0.040584
0.00184312 0.0756252 -0.00839238
0.0107893 0.0213718 -0.0182876
0.0112138 0.0213871 -0.0188229
0.0109513 0.0212651 -0.0199682
0.00386573 0.0470928 -0.0393957
-0.0582044 0.0532201 0.0245131
0.0109258 0.0212346 -0.020324
0.0137419 0.0796326 -0.00940165
0.01244 0.0213718 -0.0211467
-0.0295537 0.0463291 0.0411884
0.0130824 0.0214481 -0.0212594
0.0135348 0.0214938 -0.021443
-0.0433207 0.0458102 0.0164337
0.0149209 0.0216615 -0.0216438
0.0177454 0.0218291 -0.0243359
0.00266917 0.065355 0.00337684
-0.0513286 0.0456458 0.0199038
0.0208697 0.0222255 -0.0245474
-0.0493207 0.0457313 0.0215259
0.0217245 0.0223322 -0.0246279
0.0182312 0.023994 -0.0234772
0.0027954 0.0213769 -0.00864178
0.00337337 0.0213924 -0.00944285
0.00392482 0.0215942 -0.00989799
0.00418142 0.0215373 -0.0103758
-0.00181379 0.0606506 0.00974158
0.00457687 0.0215942 -0.0110274
0.00892125 0.0482165 -0.0144521
-0.0537615 0.0549779 0.0205843
0.0106361 0.0435092 -0.00295567
0.0247756 0.0475147 -0.0341127
0.00526988 0.0215316 -0.0130277
0.0173662 0.0556396 -0.0160792
-0.00356406 0.0605979 0.00937312
0.00671867 0.0215527 -0.0145704
0.00778802 0.0215317 -0.0152892
0.00912163 0.026155 -0.0171991
0.00846558 0.0215627 -0.0160628
0.0111587 0.0480982 -0.0209274
0.00862959 0.0215627 -0.0163469
0.0115427 0.0218258 -0.0179925
0.00523918 0.0482729 -0.0634745
0.00927926 0.0368744 -0.0106722
0.0259578 0.0476912 -0.0597602
0.0103397 0.0477478 -0.037509
-0.0207344 0.0604403 -0.00558696
0.0120635 0.0218568 -0.0184946
0.0124903 0.0217639 -0.0204339
0.0155679 0.0220735 -0.0217645
0.00880618 0.0363591 -0.0112528
0.016024 0.0221199 -0.0219544
0.0169023 0.0221664 -0.0228756
0.00469039 0.0395773 0.00357599
0.00999391 0.0528182 -0.01291
0.0241029 0.0607124 -0.0249474
0.0331614 0.0483445 -0.0650373
0.0217469 0.0227081 -0.0242668
-0.0479803 0.0463839 0.00750435
0.00537595 0.0216707 -0.0135114
0.00622099 0.0217178 -0.0143751
0.010233 0.0383072 -0.00912413
0.00837247 0.021875 -0.0161015
0.0155422 0.0528155 -0.0207198
0.0114924 0.022205 -0.0173055
0.0353727 0.0481045 -0.0424674
0.011941 0.0222521 -0.0174824
-0.0194824 0.0580033 -0.0020555
0.0126799 0.0222364 -0.0189623
0.0222651 0.0556987 -0.0251643
0.0132273 0.0221893 -0.0205103
0.0142995 0.0222836 -0.0211675
0.0155917 0.0325287 -0.0214056
0.00283074 0.0466722 -0.012903
0.0174451 0.0225507 -0.0232159
0.0185094 0.0226136 -0.0242593
0.0220394 0.0231007 -0.0241733
0.0231883 0.0232579 -0.0241633
0.0147368 0.0395992 -0.0149249
0.00445923 0.0220911 -0.0107236
0.0111606 0.0379411 -0.0109307
0.00468481 0.0220592 -0.0115143
0.00567721 0.0221089 -0.0139665
0.0117167 0.0388247 -0.0128939
0.0196345 0.0553746 -0.021408
-0.0427149 0.0464744 0.0105843
0.00617484 0.0220353 -0.0143951
0.00688526 0.0480266 -0.0624256
0.0111597 0.0225377 -0.0167292
0.0164082 0.0235316 -0.0218199
0.0117014 0.0226015 -0.0168674
0.0132428 0.0450049 -0.00943711
0.01215 0.0226494 -0.0170445
0.0132696 0.0226972 -0.0183836
0.0168537 0.0680699 -0.0299914
0.0136317 0.0226175 -0.0200108
0.0437628 0.0488343 -0.0711994
0.0138821 0.0226175 -0.0204446
0.0255193 0.0478277 -0.0376007
-0.0108955 0.0482953 -0.0709951
0.00545177 0.0474426 -0.0448427
0.0142281 0.0226334 -0.0208437
-0.0168153 0.0478627 -0.065875
0.0145863 0.0226653 -0.0210642
0.0131583 0.0483478 -0.0755908
0.0158557 0.0227929 -0.021663
0.00273289 0.0330782 -0.0099335
-0.032608 0.0461264 0.00327868
-0.00222892 0.0478838 -0.0735394
0.0172762 0.0230575 -0.0229232
0.0177593 0.0230817 -0.0234599
0.0182836 0.0230654 -0.0238681
0.0186066 0.0229684 -0.0242275
-0.00136294 0.0474656 -0.0640393
0.0198457 0.0231438 -0.0241738
0.0210874 0.0233193 -0.0241245
0.0227103 0.0480741 -0.0271354
0.0221855 0.023644 -0.0241265
0.0169272 0.069052 -0.0310189
0.0231883 0.0236064 -0.0241633
0.0248085 0.0238137 -0.0243697
0.00469439 0.0225641 -0.0113309
0.0103084 0.0656579 -0.0129546
0.0117572 0.0255894 -0.018964
0.00483279 0.0222959 -0.0128707
0.000710691 0.0526531 -0.00643095
0.00544638 0.022304 -0.0138334
0.00835643 0.0464808 -0.00147378
0.00804467 0.0336754 -0.0155338
0.00586305 0.0223201 -0.0143551
0.0172228 0.0690768 -0.0314308
0.000176633 0.0501193 0.00209405
-0.0168171 0.046616 0.0466614
0.0131637 0.0231294 -0.0170003
0.0184165 0.0766152 -0.0310983
0.0166651 0.0656581 -0.0282648
0.0136888 0.0231618 -0.0175097
0.0106304 0.0440195 -0.00341243
0.0138471 0.0231456 -0.0179838
-0.00614289 0.0480954 -0.0789102
0.0256816 0.04927 -0.0764819
0.00884387 0.041026 -0.011418
0.014005 0.0231294 -0.0184574
-0.0241854 0.0473184 -0.0624097
0.00264404 0.0307722 -0.0115796
0.0163122 0.023178 -0.0218535
0.0181706 0.0232913 -0.0236724
0.0232411 0.0479368 -0.0415215
-0.00466216 0.0473194 -0.0445249
0.0209901 0.0236474 -0.0241559
0.0246129 0.0241329 -0.0244308
0.0254741 0.0242462 -0.0245224
0.00445923 0.0227434 -0.0107236
0.00463515 0.0226284 -0.0124283
0.00662673 0.0351374 -0.0118778
-0.00517906 0.0480619 -0.0656296
0.000778585 0.0323237 0.00245146
0.010697 0.0611134 -0.0160278
0.00493848 0.0225956 -0.0133537
0.00828745 0.0462214 0.00364569
0.00510049 0.0225956 -0.0136343
0.00577087 0.0226284 -0.0143955
0.0143489 0.0236137 -0.017253
0.0145182 0.0236137 -0.0175462
0.023875 0.047436 -0.0309527
0.0153988 0.0236425 -0.0207715
0.0158312 0.023659 -0.0213205
0.0218381 0.0475565 -0.0308246
0.0160476 0.0234988 -0.0215953
-0.0112061 0.0484744 -0.0619239
0.0173001 0.0235973 -0.0225646
-0.0282222 0.0452145 0.0456822
0.0126197 0.0710499 -0.016858
0.0177351 0.0236137 -0.0231181
-0.00431407 0.0527732 0.00807217
0.0136502 0.0601805 -0.00944281
0.0050787 0.0401887 0.00360343
0.00565891 0.077216 -0.0116015
0.0180012 0.0236301 -0.0233789
-0.0200558 0.0640807 -0.000362447
0.0183644 0.023663 -0.023608
0.0397948 0.0490811 -0.0735934
0.0210874 0.0240078 -0.0241245
0.0221368 0.0241556 -0.0241421
0.00449519 0.0231362 -0.00998591
0.0132912 0.0461226 -0.0144211
0.00455904 0.0231029 -0.0104965
0.00483275 0.0231067 -0.0128706
-0.022433 0.044066 0.0518551
0.00535444 0.0230983 -0.0138741
0.00928666 0.0545542 -0.010485
-0.030409 0.0447836 0.04487
0.0123243 0.027196 -0.0187463
0.00582495 0.0230611 -0.0144892
0.0065352 0.0231655 -0.0151193
0.014726 0.024019 -0.0171062
-0.0219535 0.046989 -0.0611754
-0.000232498 0.0351183 0.00655268
0.0148486 0.0241803 -0.0174185
0.0149015 0.024206 -0.0178768
-0.0532665 0.0457101 0.0179603
0.00419314 0.0474426 -0.00886273
-0.0177793 0.0574637 -0.00300528
0.0150261 0.0239523 -0.018426
0.0161436 0.0238524 -0.0215615
0.0167693 0.0240713 -0.0220453
0.0101064 0.0271107 -0.0175048
0.0110697 0.0611063 -0.0174733
0.0172636 0.0241133 -0.0224014
-0.0599548 0.0459752 0.000344682
0.0177188 0.024082 -0.0228898
0.018728 0.0240356 -0.0238379
0.0190922 0.0240689 -0.0240686
0.0212335 0.0245496 -0.0240775
0.0126891 0.0470042 -0.0149115
0.0268502 0.0477451 -0.036306
-0.0287824 0.0463179 0.0416526
0.0240465 0.0247685 -0.0242498
0.00680975 0.0736664 0.00300517
0.0248574 0.0250527 -0.0243544
0.00123416 0.04905 -0.0774576
0.00473152 0.0234464 -0.0105952
0.0250434 0.0493222 -0.0765764
0.00476623 0.0233619 -0.0116553
0.0150509 0.0241305 -0.0203689
0.015351 0.0241389 -0.0207887
0.0156149 0.0241558 -0.0210459
0.0158675 0.0241558 -0.0214833
0.0175893 0.0243247 -0.0224655
0.0223318 0.0250556 -0.0240798
0.0323004 0.0496181 -0.065346
0.0231883 0.0250004 -0.0241633
0.00862093 0.0375991 -0.00913191
0.0241442 0.0251356 -0.024219
0.00510049 0.0235677 -0.0136343
0.00592189 0.0235848 -0.014857
-0.0026731 0.0480368 0.00172992
0.0143259 0.0245182 -0.018513
0.0145097 0.0244754 -0.0193316
0.0145605 0.0244241 -0.0200196
0.0041335 0.0479488 -0.0801594
0.014177 0.0390725 -0.0140552
0.0148362 0.0245962 -0.0204472
0.0153032 0.0246351 -0.0208059
0.0394077 0.0492916 -0.0486562
-0.0204002 0.059627 -0.00146575
0.0157833 0.024661 -0.0213375
0.00788678 0.0371529 -0.00346031
0.0242255 0.0475158 -0.0289599
-0.0414934 0.0460021 0.0154686
0.0168655 0.0245953 -0.0220119
0.0204291 0.0251266 -0.0239843
0.0213795 0.025092 -0.0240304
0.0233347 0.0255493 -0.0241168
0.0243396 0.0255202 -0.0241575
0.00484679 0.0238743 -0.0133949
-0.0423411 0.0453065 0.0327369
0.00500868 0.0238743 -0.0136753
0.010294 0.0349078 -0.0174298
0.0167208 0.0250403 -0.021828
-0.00315483 0.0558261 0.00646431
0.00907651 0.0486781 -0.014921
0.0174197 0.0251724 -0.0221719
-0.0247376 0.0459265 0.0460468
0.0176857 0.0250203 -0.0224325
-0.00167738 0.0536981 0.0186053
0.0178554 0.0250203 -0.0227264
-0.001181 0.0483738 0.000145541
0.018315 0.0250724 -0.0229225
0.0192983 0.0251419 -0.0238257
0.0213308 0.0256009 -0.0240461
-0.0170274 0.0456338 0.0470922
0.0222343 0.0255586 -0.0241109
0.0390086 0.0497053 -0.0711648
-0.0272277 0.0472953 0.0390598
0.0147976 0.0490421 -0.0789303
-0.0121315 0.0615797 -0.00538761
0.00271536 0.034111 -0.00940314
0.0176857 0.0253596 -0.0224325
0.0178554 0.0253596 -0.0227264
0.0182183 0.0253948 -0.0229551
0.0063645 0.0552129 -0.00462364
0.0188488 0.0254476 -0.023447
0.0227216 0.0259932 -0.0239551
-0.000259964 0.0516824 -0.00474973
0.00306863 0.033561 0.000484959
0.0133927 0.0253066 -0.0193968
-0.0382639 0.0465051 0.0116749
0.00775277 0.0382013 -0.000428208
0.0161844 0.0478438 -0.0700323
0.0157107 0.0255206 -0.0210117
0.0243655 0.048158 -0.0444023
0.019786 0.0260556 -0.0220703
0.0103575 0.0451496 -0.00387305
-0.0367319 0.0454852 0.0382215
0.0203547 0.0260021 -0.0236554
0.00980509 0.0456346 -0.00498291
0.011579 0.0439597 -0.00545537
0.0230141 0.0263945 -0.0238615
0.0218679 0.048039 -0.0359761
0.00921925 0.0476744 -0.0359683
-0.0377482 0.0456529 0.0400818
0.00554092 0.0247915 -0.0151972
0.00588752 0.0248276 -0.0153975
0.0063726 0.0311329 -0.0148377
0.00632722 0.0248818 -0.0155591
-0.00441775 0.0473753 -0.0407482
0.00771294 0.025123 -0.0164925
0.0103978 0.0487995 -0.0212094
0.00660529 0.0518559 -0.0104407
0.0121121 0.0254601 -0.0191787
-0.0581517 0.0458586 0.00912167
0.0125623 0.0255143 -0.0193585
0.00637284 0.0285485 -0.0162381
0.0162296 0.0285054 -0.0235104
0.0130132 0.0255685 -0.0195394
0.0140448 0.0607709 -0.0139263
-0.00922569 0.0483778 -0.0704207
0.0134648 0.0256227 -0.0197216
0.0156628 0.026017 -0.0210288
0.00972632 0.042586 -0.000946484
0.0178785 0.0260744 -0.0223665
0.0152175 0.0477056 -0.0375574
0.0136024 0.0391759 -0.0135601
0.018145 0.0260925 -0.022628
-0.00711256 0.0478365 -0.0652807
0.0186049 0.0261467 -0.0228247
0.0117987 0.0321515 -0.021036
0.007023 0.0252793 -0.0159642
0.0132748 0.02592 -0.0197926
0.0135841 0.0261143 -0.0200284
0.00915922 0.0504965 -0.0150643
0.0180831 0.0546916 -0.0205208
0.0142994 0.026188 -0.0204672
0.0151598 0.0261213 -0.0208576
0.0127275 0.0769207 -0.0100446
-0.0209738 0.0609117 -0.00607229
-0.0387702 0.0454374 0.034952
0.00724374 0.0256323 -0.0160465
0.0109366 0.0331897 -0.0204927
0.00780225 0.0256787 -0.0165139
0.00832685 0.0257343 -0.0168225
0.014849 0.0266315 -0.0208527
0.0153278 0.0266252 -0.0211486
0.00668646 0.0260734 -0.0155813
0.00227868 0.0733722 -0.000346784
0.00867721 0.0260987 -0.0170294
-0.0107666 0.0480647 -0.0685517
0.00520579 0.0453318 0.0054833
-0.0198991 0.0632064 -0.00233374
0.00966045 0.0262301 -0.0173324
-0.00290059 0.0563568 0.00702398
0.0101064 0.0262865 -0.0175048
-0.00927882 0.0469712 -0.0605286
0.0104591 0.026324 -0.0177157
0.0322451 0.0504035 -0.0678502
0.0108123 0.0265269 -0.0179275
0.011166 0.0265647 -0.01814
0.000876578 0.0473827 -0.0525183
0.00916161 0.0459422 0.000331626
0.0125623 0.0265118 -0.0193585
0.00958956 0.0499515 -0.0170096
0.0130132 0.0265681 -0.0195394
0.0163005 0.0268685 -0.0220332
0.00574854 0.0261599 -0.0147568
-0.00744446 0.0474573 -0.0524059
0.00622275 0.0262074 -0.0150782
-0.0137703 0.0481703 -0.0784491
0.0132748 0.0280874 -0.0197926
0.00832685 0.0265514 -0.0168225
-0.0121153 0.0482439 -0.0729657
0.00877068 0.0266088 -0.0169913
-0.0200382 0.0649677 -0.00139288
0.00966045 0.0265591 -0.0173324
0.0122656 0.0268348 -0.0189447
0.00399747 0.0345947 -0.000923836
-0.0168612 0.0474407 -0.0595955
0.0127992 0.0270584 -0.0192688
0.0103842 0.0486173 -0.0209859
0.0132748 0.0270871 -0.0197926
0.0136317 0.0271253 -0.0200108
0.015824 0.0681306 -0.0284079
0.0140585 0.0328293 -0.0219501
0.0119093 0.0363847 -0.0164276
0.0170893 0.0728191 -0.0343996
0.015472 0.0270914 -0.0217983
0.000179352 0.047918 -0.00851067
-0.010626 0.0573916 0.00960479
0.00260706 0.0771434 -0.00891558
0.0161801 0.0271485 -0.0224248
0.00184974 0.0261695 -0.0134705
0.00207738 0.0259835 -0.0135981
0.00669138 0.0460438 -0.00558982
-0.0171001 0.0485086 0.0455182
-0.010356 0.04755 -0.0595296
0.00272776 0.0260701 -0.0138246
0.00337955 0.0261567 -0.0140536
0.0085783 0.040457 -0.0102581
0.00434314 0.0262914 -0.0143225
-0.043679 0.0462356 0.0256542
0.00843376 0.0382276 -0.00660772
-0.00475624 0.0471992 -0.054762
0.0053561 0.0265975 -0.014577
0.0116414 0.0471264 -0.0109634
0.00622275 0.026532 -0.0150782
-0.0278484 0.0451481 0.0466348
0.00673277 0.0265705 -0.0155616
0.00277977 0.0471923 -0.0385147
0.00770908 0.0266378 -0.0165525
0.00940488 0.0396062 -0.00688975
0.010647 0.0270228 -0.0176411
0.0338414 0.0493267 -0.073015
-0.00188493 0.0476368 -0.0684353
0.0138939 0.0273115 -0.0202649
0.035212 0.0483508 -0.044989
0.0143236 0.0274978 -0.020809
0.0145863 0.0275173 -0.0210642
0.0166292 0.0275131 -0.0240692
0.00171561 0.0344065 0.0100285
-0.0116686 0.0556304 0.0106106
0.0104815 0.0379411 -0.00975446
0.0169335 0.0275851 -0.0244297
0.0283118 0.0492076 -0.0753375
0.00285321 0.0265583 -0.0139419
0.00337955 0.0266367 -0.0140536
0.00232417 0.048022 -0.00222558
0.013424 0.0696873 -0.0134512
-0.000548568 0.0353669 0.00775014
0.00381502 0.0265351 -0.0142078
0.00241832 0.0369736 0.00461135
0.00633873 0.0268469 -0.015379
0.00726693 0.0270679 -0.0163867
0.0285222 0.0477918 -0.047002
0.00783711 0.0271364 -0.0166743
0.00818682 0.0271756 -0.01688
0.00877068 0.0271001 -0.0169913
0.0112714 0.0275971 -0.0179226
-0.017678 0.0472011 -0.0584208
0.00868425 0.034479 -0.0154416
0.0132834 0.059326 -0.00960749
0.011803 0.0276561 -0.0182433
0.0023525 0.0314841 -0.0104747
0.0120635 0.0275093 -0.0184946
0.0125853 0.0275482 -0.0189984
0.0129413 0.0275872 -0.019215
-0.0136555 0.0476654 -0.0660479
0.00559692 0.0385726 0.00350584
0.0132748 0.0275872 -0.0197926
0.0136317 0.0276262 -0.0200108
0.0138939 0.0276456 -0.0202649
0.00584752 0.0373065 0.00127179
0.00164474 0.0265601 -0.0134488
0.00905843 0.0739859 -0.00168967
0.00434314 0.0270955 -0.0143225
0.00487219 0.0271749 -0.0144389
0.0130772 0.0453218 -0.0104504
0.00531001 0.0270728 -0.0145972
0.00863047 0.0275617 -0.0170484
0.00916842 0.027641 -0.0171801
0.0102002 0.0276249 -0.0174673
0.0115427 0.0278023 -0.0179925
-0.00434497 0.0477403 -0.0724743
0.0122051 0.0280378 -0.0184399
0.0127746 0.0280874 -0.0189262
0.00664983 0.0478218 -0.0147178
0.0107756 0.0488721 -0.0702638
0.00986351 0.0425694 -8.41017e-05
0.00630614 0.038582 0.000610758
0.0142838 0.0282025 -0.0209402
0.0239694 0.0491964 -0.0443163
0.0145863 0.0280192 -0.0210642
-0.0411584 0.0457413 0.0242884
0.0058848 0.0321085 -0.0139928
0.00375101 0.0517818 -0.00409695
0.0158184 0.0280488 -0.0228982
0.0162499 0.0280685 -0.0234457
-0.0109166 0.0732739 0.00630811
-0.0211282 0.0471696 -0.0553049
0.016682 0.0280883 -0.0239939
0.0160435 0.0477731 -0.0349882
-0.0292268 0.0476648 0.0374222
-0.0220971 0.0460482 0.0474733
-0.00281529 0.0478373 -0.0737238
0.000523743 0.0298703 0.0184929
0.00868147 0.040896 -0.0120368
4.83333e-05 0.0297107 0.0177163
-0.0397771 0.0453852 0.015996
0.00241926 0.0271363 -0.0137903
-0.0165395 0.0473148 -0.0521527
0.00276162 0.0271764 -0.0139833
0.00552834 0.0673143 -0.00617537
0.00328786 0.0270968 -0.0140947
0.00566796 0.0275828 -0.0149672
-0.00563978 0.0471987 -0.0484316
0.00760403 0.0275757 -0.0167706
-0.0213282 0.0475518 -0.0724585
0.0138569 0.0469915 -0.0234008
0.00804679 0.0276355 -0.0169375
0.0096136 0.0280294 -0.0173512
0.00541608 0.039311 0.00161904
0.0214008 0.04796 -0.0394672
0.0095154 0.0728384 0.00131885
0.0107409 0.0280346 -0.0176039
-0.0308413 0.0459172 0.0410187
0.011987 0.0470617 -0.0105621
0.0118973 0.0281743 -0.0182067
0.00661229 0.0449383 0.00734718
0.0150882 0.0283538 -0.0219336
-0.0231815 0.0484568 0.0425515
-0.00513778 0.0477512 -0.0639011
0.0156738 0.0285212 -0.0229478
-0.00488305 0.0471915 -0.0485423
0.0167062 0.0285964 -0.0239858
0.016982 0.0286015 -0.0244137
0.0261826 0.0477072 -0.0434496
0.00443506 0.0275983 -0.0142818
0.00894571 0.0445975 0.00220557
-0.0335773 0.0465043 0.0367575
0.00487219 0.0276588 -0.0144389
-0.00480909 0.0574804 0.00932957
-0.008765 0.0504858 -0.0474186
0.0107879 0.028541 -0.0175853
0.0112356 0.028602 -0.0177605
-0.00367894 0.0475881 -0.0628279
0.0118973 0.0285068 -0.0182067
0.00967938 0.0477064 -0.0261652
0.00367748 0.0506112 -0.0085696
-0.000913332 0.0549506 0.00318193
0.0109128 0.0480982 -0.0205016
0.0126799 0.0285673 -0.0189623
0.0129413 0.0285875 -0.019215
0.0138939 0.0286481 -0.0202649
-0.00996924 0.0535506 0.0108672
-0.0187889 0.045455 0.0478433
0.0256 0.0477271 -0.0589406
0.0143594 0.0286582 -0.0209712
0.0149923 0.0286683 -0.0219674
-0.00207093 0.0480079 0.0217869
0.0159248 0.0286885 -0.0233825
0.00146228 0.0274708 -0.0135327
0.00180334 0.0275117 -0.0137235
0.00534934 0.0353397 -0.0106653
0.00564485 0.0280631 -0.0149772
0.00598004 0.0280836 -0.0153577
0.0069053 0.0325277 -0.0149603
-0.00131123 0.0606505 0.00967111
-0.0463012 0.0463102 0.00859608
0.00488325 0.0480232 -0.060258
-0.00620373 0.0469005 -0.0524548
0.00614194 0.0280836 -0.0156381
0.0125256 0.0581554 -0.0106949
0.00870393 0.0464624 -0.00647565
0.00655859 0.028104 -0.0161598
0.00706885 0.0281448 -0.0166436
0.0105326 0.0729971 -0.00404308
0.000758508 0.0660793 0.00108621
0.00741756 0.0281857 -0.0168476
0.00902805 0.0285947 -0.017237
0.0102002 0.0286146 -0.0174673
0.00387274 0.0371785 0.00369221
0.0117671 0.0289951 -0.0180813
-0.00398974 0.0471992 -0.0560896
0.0121579 0.029026 -0.0184581
0.0217389 0.0479934 -0.0379528
-0.00319009 0.0596199 0.00962537
0.0125606 0.0290774 -0.0186557
0.00239268 0.0310709 -0.0113442
0.0134402 0.0291595 -0.0193789
0.0191881 0.0567534 -0.0170348
0.00318474 0.0466148 -0.0129161
0.0136547 0.0291698 -0.0196507
-0.0317705 0.0447437 0.0456948
0.00602695 0.0458181 0.00496101
-0.00134544 0.0526342 -0.00126963
-0.0473054 0.0458371 0.0185353
0.0125133 0.0308998 -0.0186738
0.0150287 0.0290639 -0.0214305
-0.0544231 0.0560028 0.0164635
0.0161887 0.0290435 -0.0236397
0.00223633 0.0278909 -0.0138735
0.00540219 0.0283867 -0.0145569
0.0139373 0.0590833 -0.0119401
0.00564485 0.0283867 -0.0149772
0.039914 0.0493084 -0.0731331
0.00588752 0.0283867 -0.0153975
0.00947304 0.0316127 -0.0174078
-0.0424948 0.0455738 0.0300032
-0.0366903 0.04552 0.00954952
-0.0540408 0.0494165 0.0186015
0.00604929 0.0283867 -0.0156777
-0.0461065 0.0463546 0.0084588
0.00674366 0.0285291 -0.016547
0.0258344 0.0477271 -0.0593465
-0.0033326 0.0483729 -0.0588278
0.0101533 0.0290991 -0.0174861
-0.00139469 0.0621301 0.00961567
0.00977745 0.0378359 -0.00933507
0.00112027 0.0571713 0.00245963
-0.0546965 0.0470223 0.0177371
0.0111885 0.0290891 -0.0177791
0.00799872 0.0524839 -0.0112542
0.0118973 0.0291718 -0.0182067
0.0102167 0.0433853 0.000104227
0.0142387 0.0295771 -0.0199621
0.015196 0.0294714 -0.0210203
0.0146472 0.0476888 -0.0348696
0.0154 0.029461 -0.0214736
0.015472 0.0294403 -0.0217983
-0.0340356 0.0450909 0.0435513
0.00651429 0.0359494 -0.0104831
0.002607 0.0336613 -0.00891548
0.0299338 0.0499885 -0.0725469
-0.00406108 0.0527105 -0.00446603
-0.0219314 0.048401 0.0439863
-0.000400565 0.052854 0.00349379
0.00271144 0.0316604 -0.0114297
0.0223254 0.055237 -0.0249686
0.0157359 0.0296291 -0.0220552
0.0154228 0.0293577 -0.0225132
-0.00288496 0.0474011 0.0215969
0.0159248 0.0293577 -0.0233825
0.00724146 0.0330825 -0.0149926
0.0161887 0.0293784 -0.0236397
0.0166701 0.0295453 -0.0239402
0.00957525 0.0397764 -0.00718484
0.005864 0.0286685 -0.0157568
-0.014225 0.0485563 -0.0628617
0.00965509 0.0404299 -0.00752313
0.00746046 0.0480636 -0.0147219
0.00706885 0.0287938 -0.0166436
0.00771333 0.0467827 -0.0069599
0.00768545 0.02904 -0.0169116
0.00921521 0.0291281 -0.0171612
0.0176121 0.0459112 -0.0145051
-0.0540064 0.0556456 0.0157419
-0.0491434 0.0461006 0.0140522
0.00966045 0.0291908 -0.0173324
-0.0422429 0.0452197 0.0270168
0.0107879 0.029534 -0.0175853
0.00590608 0.0503926 -0.0136296
0.0127746 0.0295878 -0.0189262
0.0137611 0.0297132 -0.0194349
0.00660191 0.0534147 -0.00563487
0.0159634 0.0299013 -0.0214493
-0.00185307 0.0517503 0.00910957
0.00219116 0.0325746 -0.00639521
0.00637284 0.0290338 -0.0162381
0.0164701 0.0681247 -0.0293271
0.0112702 0.0387437 -0.0127206
-0.00542834 0.0474442 -0.0425978
0.00662762 0.0290549 -0.0164794
-0.00257765 0.0536374 0.0052646
-0.0466025 0.0461118 0.0162178
0.00872395 0.0295463 -0.0170104
0.00975416 0.0295409 -0.0172947
-0.00113576 0.0470489 -0.0519328
0.0122051 0.0300348 -0.0184399
0.0126079 0.030088 -0.0186375
-0.0021323 0.0466526 0.00129324
-0.018504 0.0468631 -0.0563502
0.00368337 0.0348983 -0.0033798
0.0152052 0.0302383 -0.0201362
0.0200343 0.0605657 -0.0269004
0.00769727 0.0295496 -0.0167321
0.00984787 0.0300561 -0.017257
0.010294 0.0301205 -0.0174298
-0.0266733 0.0457379 0.0441995
0.0107409 0.030185 -0.0176039
0.00840543 0.0340765 -0.0155587
0.0113767 0.0301265 -0.0177049
0.0137722 0.0305718 -0.0192542
0.0106309 0.0416521 -0.00781331
0.0026327 0.0343638 0.01104
0.0145829 0.0305111 -0.0196583
0.0386226 0.0498132 -0.0698963
-0.0368536 0.0454104 0.0208323
0.0155866 0.0306607 -0.0199968
0.0285218 0.0478281 -0.0366012
-0.0497839 0.0454945 0.0236283
0.0161374 0.0307462 -0.0201509
-0.00998738 0.0519633 0.00849865
0.0301392 0.0492042 -0.0754026
-0.00681189 0.0536237 0.00659853
-0.0535725 0.0527723 0.0195903
0.016498 0.0307889 -0.0203755
0.0169332 0.0308103 -0.0209292
0.0145133 0.052101 -0.0315378
0.017007 0.0307889 -0.0212571
-0.0399832 0.0453511 0.0148529
0.00886415 0.0300697 -0.0169532
0.00940238 0.0301561 -0.0170854
-0.024294 0.0487472 -0.0561215
0.0127842 0.0442464 -0.00794289
0.0116368 0.0304802 -0.0179556
-0.0193137 0.0456449 0.0176524
-0.00282292 0.0528155 0.0110894
0.0138663 0.0400573 -0.0138171
0.0168371 0.0735915 -0.033496
0.00020443 0.0480598 -0.0104541
0.0123243 0.0305234 -0.0187463
0.00907718 0.0451082 0.00187786
0.0147731 0.0308906 -0.0195878
0.00731251 0.0741702 -0.000665652
0.00671783 0.0409611 0.00136436
0.00664454 0.0347459 -0.0124087
0.0094417 0.0485882 -0.0667535
0.0431033 0.0499446 -0.069457
0.0027553 0.0470086 -0.0438723
0.0174334 0.031301 -0.0203955
0.017604 0.031301 -0.020691
0.00674435 0.0300918 -0.0160816
-0.00373991 0.0556275 0.00647771
-0.0105026 0.0492281 -0.080209
-0.0218336 0.0474617 -0.0535831
0.0101064 0.0305722 -0.0175048
0.0127746 0.0309216 -0.0189262
0.0169967 0.0316204 -0.0198391
0.00857226 0.0391468 -0.0124476
0.0173583 0.0316641 -0.0200655
0.0181033 0.0317951 -0.0201558
0.0182747 0.0317951 -0.0204528
0.0182543 0.0317514 -0.0208173
0.0069053 0.0481825 -0.0149603
-0.0201906 0.0454459 0.0479712
0.000364975 0.0315327 0.00356783
0.00600296 0.0303942 -0.0149974
-0.0206437 0.0630558 0.00115598
0.00676763 0.0304604 -0.0157219
-0.0335893 0.0452309 0.0417783
0.011488 0.0483234 -0.0752978
