ply
format ascii 1.0
comment Created by Open3D
element vertex 1475
property float x
property float y
property float z
end_header
0.0210511 -0.00282608 -0.00614942
0.0184569 0.0180059 -0.0110025
-0.0194834 0.0488723 0.00547525
0.021928 0.0472413 -0.00365345
0.0219811 -0.00283191 -0.00633996
0.00866896 0.00165973 -0.0111827
-0.0260066 -0.00234529 0.0192488
-0.0375671 0.046747 -0.0124321
-0.0224767 0.0477949 0.00731887
-0.0467341 0.0454076 0.0269819
0.0186468 0.0124401 -0.0107658
-0.0520251 0.0457156 -0.0298345
-0.02549 -0.00228782 0.0188735
-0.0249288 -0.00222783 0.0182802
-0.0489781 0.0457067 0.0173078
-0.0241059 -0.0024525 0.0177858
-0.012761 0.0569894 0.00655926
-0.00051575 0.0476598 -0.0103255
-0.0231318 -0.00244994 0.0170502
-0.0235861 -0.00228066 0.0172547
0.00501897 0.00385278 -0.0122123
-0.0229918 -0.0022226 0.0167769
0.00386076 0.0346692 -0.00754064
0.00984179 0.0379239 -0.00383464
-0.0224417 -0.00233321 0.0163438
0.0010905 0.0192329 -0.0095208
-0.0026207 0.0357545 -0.0059925
-0.0219753 -0.00243454 0.0153433
-0.0649549 0.0573062 0.0028607
0.016787 0.0162088 -0.0115395
-0.0220417 -0.00225033 0.0141692
-0.0150291 0.0442148 0.00913888
-0.0222147 -0.00239348 0.0127102
0.0174941 0.0082507 -0.0114281
-0.0224724 -0.00232505 0.00824016
-0.0162086 0.0412146 0.00843426
-0.0222656 -0.00232163 0.00788984
0.0085175 0.0279617 -0.00664965
0.00956684 0.0533045 -0.00656265
-0.0459346 0.0455698 0.0270977
-0.0210158 -0.00230879 0.00630225
-0.0520794 0.0463756 -0.0107795
-0.00579524 0.0466565 -0.00900942
-0.0465021 0.0472518 0.0163979
0.0114543 0.0102779 -0.0119248
-0.0200449 -0.00230281 0.00533752
-0.0189469 -0.00230281 0.0047036
-0.018417 -0.00230196 0.00433994
-0.054563 0.046148 -0.0192664
-0.0179861 -0.00230281 0.00414892
0.0200148 0.00521695 -0.0106318
-0.0175159 -0.00230538 0.00405066
-0.0514029 0.0460073 0.00750725
-0.00503295 -0.00222924 -0.00829482
0.0149698 0.0276953 -0.00875826
-0.0149621 0.0365435 -0.00210038
0.0105013 0.0639248 -0.000751287
-0.00295888 0.0545189 0.00332488
0.0127975 -0.000247625 -0.0103908
-0.0045015 -0.00222924 -0.00860165
0.00347558 0.0328512 -0.0098586
-0.00365345 -0.00223095 -0.0089758
0.0376405 0.0487193 -0.0658413
-0.00447636 0.0273098 -0.0106658
-0.050365 0.0470374 -0.00971967
-0.0474658 0.0452729 -0.00536021
-0.00338752 -0.00223095 -0.00912934
-0.011918 0.0443007 0.00526427
0.0204569 0.00225831 -0.00903952
-0.0103853 0.0358016 -0.0046273
0.0219499 0.0357106 -0.00135674
-0.00296288 -0.0022318 -0.00931677
-0.00253804 -0.00223266 -0.00950431
0.00577297 0.069229 0.00163219
-0.0536337 0.045685 0.00867968
0.0113766 0.0482868 -0.00795396
-0.00208685 -0.00223437 -0.00964936
-0.0389727 0.0462624 -0.0296916
-0.0358116 0.0463218 -0.0106166
-0.000968682 -0.00223608 -0.0101794
0.012045 0.00584684 -0.0128046
0.00989332 0.0204877 -0.0121782
0.000874863 -0.00224806 -0.0104355
0.00125111 -0.00225148 -0.0104218
0.0247045 0.00878099 -0.0086051
0.00151948 -0.00225148 -0.0105768
0.00808311 0.0473856 -0.00466678
0.00203136 -0.0022549 -0.0106414
0.00259941 -0.00226004 -0.0106229
0.00308644 -0.0022626 -0.0107309
0.000334209 0.0323421 -0.00896869
-0.0104099 0.0411066 0.000929451
0.0104387 0.0152367 -0.0111652
-0.045492 0.0462715 0.0241286
0.00351873 -0.00226346 -0.0109227
-0.0346298 0.0538021 -0.0176497
0.00397931 -0.00226517 -0.0110732
0.0156919 0.0138872 -0.0113691
-0.04062 0.045401 -0.0283941
0.0044405 -0.00226688 -0.011224
-0.0556731 0.0462528 0.0115892
-0.00608523 0.0512491 0.00270501
-0.00306147 0.0493051 0.000150948
0.0064062 -0.00227714 -0.0116661
-0.0289083 0.0449928 -0.0215304
-0.0129834 0.0469675 0.000683202
0.00768464 -0.00229083 -0.0114804
0.00858132 -0.0023011 -0.0113053
-0.0122084 0.0358288 -0.00345929
0.00876602 0.0209907 -0.00771688
-0.0150051 0.0463216 0.00670023
0.00948289 -0.00231136 -0.011133
0.00999456 -0.0023182 -0.0109665
0.0109633 -0.00233018 -0.0107175
0.0132193 -0.00236269 -0.0098261
-0.0179665 0.0402968 0.00841
0.021998 0.047647 -0.0167421
0.0151599 -0.00239348 -0.00886804
0.0159244 -0.00223747 -0.00867433
0.0010905 0.0207907 -0.0095208
-0.0135506 0.0475563 0.00401289
0.00919756 0.00576036 -0.0120652
-0.0452867 0.046487 -0.00653174
0.012703 0.0407406 -0.00144511
0.00452293 0.056753 -0.007692
0.0161602 0.00479865 -0.0112931
0.016938 -0.00241915 -0.00816261
-0.0124829 0.0380925 -0.00226157
-0.00354077 -0.00130673 -0.00938727
0.02013 -0.00246705 -0.00677229
-0.0262527 -0.00211716 0.0191984
-0.015985 0.0400928 0.00645766
-0.0164749 0.0371586 0.0013134
0.0130648 0.0138002 -0.0126814
-0.0254369 -0.00211421 0.0184965
-0.0244777 -0.00211126 0.0177117
-0.0225617 -0.00183626 0.0075412
0.0197499 0.0491348 -0.00886225
-0.0222365 -0.00199175 0.00706475
-0.0520673 0.0461503 -0.00775536
0.00949318 0.00475579 -0.0123706
0.00355253 0.0451781 -0.002282
0.00303118 -0.00117173 -0.0108144
0.0138999 0.0373439 0.00028871
-0.0215546 -0.00182748 0.00620915
0.00165524 0.0127662 -0.0126181
-0.000430318 0.00918727 -0.0132231
0.0110924 0.0267378 -0.00862701
0.0307864 0.0495206 -0.0128093
-0.0195302 0.0343007 0.000825725
-0.0206151 -0.00188118 0.00574374
-0.0590922 0.0553661 -0.00987722
-0.0311268 0.0460904 -0.0193258
-0.0164572 0.0482808 0.0031892
0.0130645 0.0188444 -0.0132009
-0.0519759 0.0462291 -0.000793329
-0.0200486 -0.00187838 0.00518575
0.0155056 0.0151541 -0.011608
-0.0190558 -0.00187789 0.004574
-0.0259558 0.0435246 -0.0171151
-0.0299957 0.0433538 -0.0148981
-0.0560092 0.0472949 0.0117448
0.0226264 0.0478933 -0.0113314
-0.0184266 -0.00182638 0.00431662
-0.0147691 0.0341786 -0.00313553
-0.0200266 0.0348827 0.00163196
0.0214962 0.0477175 -0.00721469
-0.0179475 -0.00198732 0.00424208
-0.00476723 -0.00192241 -0.00844823
-0.0041472 -0.00182013 -0.00880621
-0.0415775 0.0462774 -0.0288344
0.0238877 0.00466057 -0.00905732
-0.000427295 0.00839234 -0.0130324
-0.00319852 -0.00176837 -0.00941166
0.00291076 0.0281713 -0.0116494
-0.055276 0.0463766 -0.0147363
-0.00293291 -0.00176837 -0.00956502
0.00205873 -0.00179003 -0.0105994
0.0218307 0.0480947 -0.00786967
-0.00756668 0.00323813 -0.00937232
0.00254445 -0.00179207 -0.0107066
-0.0402536 0.043501 0.0325935
0.00303118 -0.00179411 -0.0108144
0.0304846 0.0480475 -0.0737957
0.00393743 -0.00179651 -0.0111356
-0.047389 0.0461995 0.0190462
0.00454752 -0.00179818 -0.0113435
0.00697797 0.00320896 -0.0119384
-0.00109136 0.0717133 0.00825111
-0.0535176 0.0460413 0.000703001
0.00548589 -0.0018012 -0.0116255
0.00599176 -0.00180367 -0.0117154
0.00995456 0.0383114 -0.00366881
-0.0107828 0.0442085 0.00310775
-0.00828891 0.00415602 -0.00849345
0.00702989 -0.00181207 -0.0115931
0.00250074 0.0542777 -0.00690939
0.00771365 -0.00181849 -0.0114394
0.00813236 -0.00182182 -0.0113925
0.00866896 -0.00182799 -0.0111827
0.0090315 -0.00182996 -0.0112188
-0.0135605 0.0423005 0.00771371
0.00993552 -0.00199765 -0.0110479
-0.0016291 0.0463427 -0.0109529
0.00542152 -0.000708414 -0.011444
-0.0534466 0.0460354 -0.0266467
0.0104486 -0.00184366 -0.0108822
-0.010452 0.0393447 -0.00095148
0.0166483 0.000736711 -0.0096119
-0.0449982 0.0447479 0.0308872
0.00802464 0.0062388 -0.0112725
0.0109039 -0.00184774 -0.0107987
-0.0535117 0.0462728 -0.027735
0.0149164 -0.00205814 -0.00918934
0.0155063 -0.00206552 -0.00895255
0.0166306 -0.0020788 -0.00856247
0.0178861 -0.00209503 -0.00801717
-0.0227016 0.0447358 0.0142615
0.0190883 -0.00210978 -0.00755653
0.0196924 -0.00211716 -0.00732798
0.0170378 0.0172362 -0.0112224
-0.000693711 0.0559497 0.00328726
0.0225954 -0.00214371 -0.00692554
-0.0266059 -0.00177676 0.0191714
-0.0525188 0.0455658 0.0121352
0.00961924 0.00371387 -0.01202
0.0199812 0.00965845 -0.0111898
0.0145701 0.0412179 -0.000560077
-0.027472 0.0477768 -0.0216668
-0.0466118 0.0467544 0.0183665
-0.0259214 -0.0017749 0.018603
0.00803274 0.00720058 -0.0109886
0.0155041 0.0401869 -0.000829914
0.0256215 0.0472576 -0.0140998
-0.0216212 0.0434944 0.0204504
0.0124479 0.00311528 -0.0119211
-0.0255302 -0.00177304 0.018204
-0.0539065 0.0460885 -0.00929154
-0.0252386 -0.00177304 0.0180356
0.0065206 0.0203182 -0.00786385
-0.024687 -0.0017718 0.0176017
-0.0243956 -0.0017718 0.0174334
0.000614156 0.03711 -0.0061281
-0.00550868 0.0331716 -0.00536436
-0.0239745 -0.00177118 0.0171326
0.0100826 0.0145337 -0.0116524
-0.0230351 0.0386491 0.0168211
-0.0552475 0.0460256 0.0106507
0.00352866 0.025138 -0.0100625
-0.0234083 -0.00177056 0.0167479
-0.0225346 -0.00177056 0.0162436
-0.0220978 -0.00177056 0.0159913
0.0158206 0.0439122 0.0018356
-0.00888543 0.00280305 -0.00768718
-0.0219416 -0.0017656 0.0154393
-0.0557829 0.0468655 -0.015252
-0.0220586 -0.00175072 0.0141212
0.00956172 0.0022999 -0.011294
0.00316389 0.0377147 -0.00505984
-0.0190036 0.0414811 0.0110872
-0.0225118 -0.00167385 0.0072237
-0.0165942 0.0417961 0.00963838
0.0229439 0.00176943 -0.00914748
3.06664e-05 0.0447252 -0.00167279
0.000499424 -0.00162673 -0.0104497
0.00346316 -0.00163913 -0.0110061
0.00999456 -0.00168005 -0.0109665
-0.024979 0.0486072 0.00680059
-0.0060598 0.00950556 -0.0112815
-0.0400144 0.0591394 -0.00894063
-0.0343535 0.0548458 -0.0181172
0.0176904 0.047191 -0.0152365
0.0113007 -0.00168997 -0.0107969
0.0140859 -0.00171849 -0.00974909
-0.00364723 0.00880153 -0.0119238
0.0158531 -0.00173708 -0.00903729
-0.00856422 0.0417588 -0.00244553
0.00996403 0.00721397 -0.0118149
0.021264 0.0133147 -0.00962095
0.0193799 -0.00177304 -0.0077249
-0.00872517 0.0427475 -0.00275676
0.0199851 -0.00177924 -0.00749694
-0.0240632 -0.00126425 0.0168662
0.0252273 0.0102019 -0.00798322
-0.0512694 0.0454825 -0.0305595
-0.00847044 0.0547903 -0.00122951
0.0204664 -0.00178296 -0.00742846
-0.0206982 0.0379775 0.0140286
-0.0561693 0.0474941 -0.0114493
0.0214962 -0.00179164 -0.00721468
-0.00408986 0.00924584 -0.0117838
0.0219179 -0.00179412 -0.00722724
0.00352418 0.0172508 -0.0516291
0.0158375 0.0434145 0.00124852
-0.0479162 0.0447572 -0.00507135
0.00131113 0.0097769 -0.0136896
-0.0391726 0.0464215 -0.0190684
0.0224679 -0.00179908 -0.00708289
-0.053476 0.0463467 -0.0322878
0.0228278 -0.00180032 -0.00717517
-0.00744879 0.0339266 -0.0043597
-0.0144328 0.0497511 -0.00217501
-0.0260445 -0.00126578 0.0182123
-0.0255302 -0.0014363 0.018204
-0.0409565 0.0487723 0.0289579
-0.0249513 -0.00126387 0.0173212
-0.0115903 0.038237 -0.00219957
-0.0149031 0.0574017 0.0053134
0.0171822 0.000904124 -0.00945826
-0.0230044 -0.00126539 0.0163992
-0.0220978 -0.00126616 0.0159913
0.000443955 0.0386659 -0.00487513
-0.022923 -0.001368 0.00884673
-0.0228571 -0.00135394 0.00719211
0.000570512 0.020329 -0.00956699
0.0225846 0.0168095 -0.0106144
-0.0344259 0.0552524 -0.0182004
-0.0224842 -0.00134892 0.00639945
0.0210393 0.047598 -0.0168814
-0.0202561 -0.00134992 0.00522855
-0.0125174 0.0327259 -0.004551
-0.00428625 -0.00130774 -0.0088414
-0.00301014 -0.00130673 -0.00969363
0.0226054 0.0293715 -0.00473741
-0.0676112 0.0652739 0.0278347
-0.0378272 0.0469289 -0.0110694
-0.00247951 -0.00130673 -0.01
-0.00202933 -0.00130774 -0.0101444
-0.0465858 0.0464051 0.0203145
0.000124802 -0.00131577 -0.0104644
0.00431456 0.0419251 -0.004454
-0.0105417 0.0406971 0.000659152
0.000499424 -0.00131778 -0.0104497
0.0119538 0.0165683 -0.0115204
0.000874863 -0.00131979 -0.0104355
-0.0544955 0.0458627 -0.00294711
0.00148437 -0.00121935 -0.010441
0.00205873 -0.00116907 -0.0105994
0.00667861 0.048096 -0.00905205
0.0157506 0.027684 -0.00863172
-0.00137491 0.0357101 -0.00757778
0.00351873 -0.00117306 -0.0109227
-0.0408443 0.0466076 0.0278538
0.00610617 -0.00117965 -0.0115505
0.0164187 0.041907 -0.000934574
0.00649231 -0.00118142 -0.0115426
-0.0186162 0.0410043 0.0102862
0.00693688 -0.00118409 -0.0114528
0.00735376 -0.00118624 -0.0114048
0.00411431 0.00225548 -0.0111511
0.00836525 0.00118373 -0.0110651
-0.00452734 0.0251716 -0.0107518
-0.052884 0.0458182 0.00443638
0.00796939 -0.00124291 -0.0112599
-0.00251797 0.0407177 -0.00328053
0.0187102 0.0127789 -0.0106868
0.0161551 0.0429191 0.000487792
0.00914875 -0.00135595 -0.0110555
0.00950865 -0.00114656 -0.0109169
-0.0185678 0.0396168 0.00864168
-0.0331478 0.0472291 -0.0133092
-0.0190613 0.0467781 0.00782961
0.0100536 -0.00120232 -0.0108851
0.0253705 0.0473245 -0.0114145
0.0210237 0.0472413 -0.00313139
0.0105078 -0.00120498 -0.010801
0.00657732 0.0272963 -0.00749247
0.00356544 0.00271299 -0.0114116
-0.00653267 0.0397064 -0.00364731
0.0113305 -0.00120892 -0.0107563
0.00500632 0.036502 -0.00577715
0.00412999 0.0241048 -0.0100055
-0.0112475 0.0570275 0.00672468
-0.0080361 0.00374672 -0.00887035
0.0117882 -0.00121157 -0.0106742
-0.0530127 0.0464367 -0.0122902
-0.00920705 0.0546753 -0.000226875
-0.00691388 0.0495614 0.00145138
0.0127975 -0.00138006 -0.0103908
0.013102 0.0421387 -0.000867175
-0.00905388 0.00326341 -0.00735898
0.0127975 0.0484469 -0.0103908
0.0145893 0.0282443 -0.0085386
0.014926 -0.00123309 -0.00971452
0.0136179 0.00567961 -0.0124811
0.0155466 -0.00140215 -0.00943775
0.0160773 -0.00140617 -0.00928222
-0.00992815 0.0432715 -0.00131167
0.0169268 -0.00124562 -0.00925308
-0.0158239 0.0357331 -0.00177598
0.018454 -0.00125691 -0.00863371
-0.0178478 0.0322522 -0.00106934
0.0190875 -0.00126172 -0.00836436
-0.016099 0.0689444 -0.00456164
-0.000502412 0.0540815 0.00259946
0.0212429 -0.00144735 -0.00753034
0.0284672 0.00323568 -0.00627421
0.0217274 -0.00145036 -0.00746361
0.00735249 0.0252522 -0.00863283
-0.000541435 0.0351639 -0.00771257
-0.00960845 0.0384682 -0.00241999
0.00430301 0.0338556 -0.00860426
0.022636 -0.00145539 -0.00741086
-0.0200643 0.0332214 0.00113409
0.00727852 0.00368071 -0.0120542
-0.0116023 0.0323323 -0.00454047
0.0231239 -0.0014584 -0.00734613
-0.0259763 -0.00109572 0.0178842
-0.0502957 0.0460136 0.00952381
-0.00359186 -0.000999604 -0.00947325
-0.00299042 -0.000897384 -0.00985898
-0.00500647 0.0337218 -0.00669353
-0.0558842 0.0427363 0.0096326
-0.00246041 -0.000795342 -0.010165
-0.00200118 -0.000846541 -0.0103916
-0.0620374 0.053284 -0.00340403
0.0141713 0.0044277 -0.0117614
-0.00154175 -0.000795775 -0.0106184
-0.00104684 -0.000796387 -0.0107887
-0.055296 0.0463022 0.0102168
0.0172981 0.0468917 0.000289746
0.0155995 0.00767939 -0.0120086
0.00881502 -0.00103728 -0.0109783
0.0258523 0.0470742 -0.00776667
0.0193755 0.00978875 -0.0114174
0.0167426 0.0307826 -0.00677957
0.012277 -0.00105343 -0.0105523
0.0250655 0.00844561 -0.00869809
-0.0045004 0.0335682 -0.00767853
0.0137826 -0.00106189 -0.0101513
0.0153628 -0.00107111 -0.00967801
-0.0334621 0.046274 -0.0262143
0.0189641 0.018216 -0.0108912
0.0179669 -0.00108572 -0.00898756
0.00192592 0.0185817 -0.010234
0.0238614 0.0262726 -0.00644406
-0.0280139 0.045401 -0.0356722
0.020381 -0.0011011 -0.00807195
0.00108806 0.011646 -0.0129257
-0.0256857 -0.000760158 0.0177164
-0.0477806 0.0463213 0.0166165
0.0105819 0.0131643 -0.0130954
-0.0232226 0.0451745 0.0137539
-0.0254264 -0.000759625 0.0174512
0.0150391 0.0167388 -0.0116851
0.0195992 0.00667817 -0.0111425
-0.0249407 -0.000758025 0.0168244
-0.024442 -0.000759092 0.0167674
-0.0239421 -0.000760158 0.0167097
0.00262961 0.0116138 -0.0122569
0.0154317 0.00171262 -0.010122
-0.00407041 0.0258016 -0.0108713
-0.0236515 -0.000760158 0.0165419
-0.0357568 0.0562787 -0.0171145
-0.049467 0.0457499 -0.0323218
-0.00110639 0.0127998 -0.0124093
0.0242786 0.0104726 -0.0085902
0.0239942 0.0347939 -0.00271022
-0.00284821 -0.000692944 -0.0100181
-0.0631295 0.0651654 0.0477639
0.00195151 -0.000703613 -0.0104798
0.00351873 -0.000705747 -0.0109227
0.00973772 0.014179 -0.0118575
0.0076666 0.00934062 -0.0120473
0.00406318 -0.000707081 -0.0109484
0.0173665 0.0425694 -0.000211587
0.00793865 0.010283 -0.0122044
-0.0225891 0.0364103 0.0155821
0.00495879 -0.000707881 -0.0112923
0.00580634 -0.000709481 -0.0114352
0.00193991 0.00515838 -0.0116278
-0.0489149 0.0453452 0.0268554
0.0155677 0.00867523 -0.0115284
0.00657841 -0.000711615 -0.0114191
-0.0289526 0.0462471 -0.0211122
0.0134555 0.00927685 -0.0111172
-0.018506 0.0341827 -0.000285212
-0.0500333 0.0463285 0.00856398
0.00746939 -0.000714816 -0.0112407
-0.0548756 0.0459648 0.00281492
0.00450616 0.000700402 -0.0105691
0.00152212 0.0202133 -0.00942359
0.0175599 0.0402123 -0.00142021
-0.00306417 0.0380073 -0.00423534
-0.00897402 0.0429206 -0.00255535
0.00797472 -0.000716949 -0.0110705
0.00887344 -0.00072015 -0.0108966
-0.0584236 0.055304 -0.00422991
0.0193799 0.0261763 -0.0077249
-0.0109709 0.0418376 0.00159976
0.00994483 -0.000723618 -0.0107646
-0.0143905 0.0483521 -0.000120978
0.0114983 0.0480183 -0.0099872
0.0105078 -0.000724951 -0.010801
0.01142 -0.000728152 -0.0106348
-0.0196072 0.0327088 0.000639287
0.010996 0.0556672 -0.00623306
0.012277 -0.000730819 -0.0105523
0.0137826 -0.000736687 -0.0101513
0.0211036 0.013793 -0.00981705
0.0147734 -0.000740421 -0.00991505
0.0170324 0.00386033 -0.0101801
0.0221167 0.0483089 -0.017792
0.008982 0.0250963 -0.0085344
0.0188308 0.00323678 -0.00948631
0.0153015 -0.000742555 -0.0097581
0.00390408 0.0478081 -0.00629547
0.0131261 0.00582465 -0.0126013
0.0158313 -0.000744688 -0.00960212
0.0178423 -0.000752157 -0.00914655
-0.0040512 0.00970286 -0.0117195
0.00644646 0.0406935 -0.00476109
0.0184424 -0.000754824 -0.00891566
0.0320453 0.0482015 -0.0740425
0.0135101 0.00520132 -0.0123611
0.0201286 -0.000761759 -0.00838806
-0.0223302 0.0448761 0.0133542
0.00899831 0.0107473 -0.0121619
-0.0268481 -0.000424597 0.0183875
-0.0187386 0.0397028 0.0090867
-0.026588 -0.000424299 0.0181219
0.0086485 0.038291 -0.00441587
-0.019131 0.0402257 0.0107566
-0.0220823 0.0441078 0.0191
-0.0280133 0.0416955 -0.0162736
-0.0255203 -0.000256213 0.017159
-0.0249724 -0.000256033 0.0167272
0.0114363 0.00278909 -0.0116834
0.00953268 0.0108632 -0.0123164
-0.0240067 -0.000424001 0.0165161
0.00560213 0.00231446 -0.0115482
-0.0590651 0.0577604 -0.00808382
-0.0236515 -0.000424597 0.0165419
0.00861445 0.0662416 0.00103089
-0.00316462 -0.000386756 -0.00995086
-0.00292576 -0.000233897 -0.0101465
-0.0313373 0.0471953 -0.0151627
0.0104782 0.000714814 -0.0108416
-0.00197345 -0.000233987 -0.0106386
0.00197879 -0.000237744 -0.0104378
0.00887937 0.070735 0.000185105
0.0209751 0.00873538 -0.0104934
-0.019426 0.0465056 0.00821337
0.00245645 -0.00018627 -0.0104634
0.00404096 0.00394489 -0.0120903
0.0144787 0.0164153 -0.0113615
-0.015034 0.0341786 -0.00298258
-0.00103111 0.0582956 -0.00660232
-0.00843329 0.0421976 -0.00321395
0.00305067 -0.000290258 -0.010691
0.0105761 0.0644431 -0.000332607
0.00353987 -0.000186792 -0.010704
0.0157506 0.0271881 -0.00863172
0.00788022 0.0491985 -0.0122862
0.0212471 0.0376759 -0.000835483
0.00951128 0.0491985 -0.0132278
0.00398374 -0.000239006 -0.010787
0.00899932 0.00825221 -0.0116236
0.00552042 -0.000292056 -0.0111162
0.0211252 0.0469861 -0.00157343
0.00600582 -0.000240268 -0.0111462
0.0209257 0.0477122 -0.00630795
0.00747256 0.0041542 -0.0120507
-0.0519835 0.0460073 0.00530209
0.0122052 0.0117212 -0.0122428
0.0160979 0.0147209 -0.0113726
0.0069374 -0.00029377 -0.0110875
0.00853992 -0.00024312 -0.0108195
-0.00297961 0.044045 -0.000820074
0.00904872 -0.000243841 -0.0106514
-0.0314874 0.0470374 -0.0206187
0.00938327 -0.000244021 -0.0107291
-0.0269778 0.0466526 0.01419
9.4612e-06 0.00909831 -0.0132845
0.0149273 0.0483373 -0.000650828
0.0100333 -0.000244742 -0.0106425
0.0165571 0.0478211 -0.0206444
0.0105375 -0.000244953 -0.0107604
0.0109633 -0.000245463 -0.0107175
0.0149851 0.0472729 -0.0198522
0.0113902 -0.000245855 -0.0106753
0.0118079 0.00373874 -0.0122444
-0.0504507 0.0461923 -0.00911596
-0.00406402 0.00774473 -0.0117409
0.0176302 0.0295436 -0.00671469
0.011848 -0.000246395 -0.0105932
0.0137826 -0.000248887 -0.0101513
-0.000600062 0.0412456 -0.0033871
-0.0310639 0.0467072 -0.0166485
0.00396581 0.0386929 -0.00459906
0.0143077 -0.000249608 -0.0099926
0.0153015 -0.00025087 -0.0097581
0.0171822 -0.000253032 -0.00945826
-0.0191807 0.0419005 0.0115359
0.0177177 -0.000253753 -0.00930556
-0.00493289 0.0262249 -0.0105465
0.040464 0.0485974 -0.0668941
0.0200654 -0.000425193 -0.00846709
-0.00348864 0.0337612 -0.00808947
0.0226108 -0.000430259 -0.00797367
0.00462968 0.0512686 -0.00694534
-0.025955 -8.87862e-05 0.01741
-0.0024747 -8.0976e-05 -0.0105801
0.0208439 0.0247324 -0.00695356
-0.00958567 0.0462685 -0.002029
0.00850384 0.00921797 -0.0119534
0.014612 0.0221709 -0.00959097
-0.0360418 0.0463218 -0.0104836
-0.000940729 -8.1226e-05 -0.0110039
-0.0420967 0.0601805 -0.00878918
0.00504903 -8.31629e-05 -0.0108825
0.0250756 0.048546 -0.075792
0.00537705 -8.32254e-05 -0.0109564
-0.0204311 0.0448525 0.0109876
0.0168652 0.00528704 -0.0117001
0.00770064 -8.39751e-05 -0.0109123
-0.018843 0.0307662 0.000486705
-0.0290706 0.044266 -0.0199356
-0.0317103 0.0424299 -0.0139082
0.00848949 0.0476183 -0.0106171
0.020781 0.0230162 -0.00703271
0.0187936 -8.84738e-05 -0.00900299
0.019397 -8.87862e-05 -0.00877398
0.0249005 0.00298655 -0.00837189
-0.0584263 0.0566782 -0.0042572
0.0199392 -8.90361e-05 -0.00862516
-0.0138173 0.0405637 0.0057835
-0.0550999 0.0462557 -0.0142606
0.0215757 -8.97859e-05 -0.00818437
0.0224184 -9.00359e-05 -0.00820899
-0.0264817 0.000245314 0.0173677
-0.0260326 0.000245401 0.0171661
0.0230743 0.00868403 -0.00951142
-0.0254854 0.000245227 0.0167347
-0.0024747 0.000224208 -0.0105801
0.0184552 0.025237 -0.00782607
-0.00207826 0.000224208 -0.010809
0.0198761 0.000246352 -0.00870419
0.00151948 0.000227668 -0.0105768
0.00501493 0.00127597 -0.0107474
0.00195151 0.000228187 -0.0104798
-0.0490878 0.0458209 0.0137916
0.0211344 0.00922177 -0.0108163
0.00303428 0.000229052 -0.0105276
-0.0448343 0.0472046 -0.00910231
0.00307258 0.0462972 -0.00212037
0.0209292 0.00281984 -0.00915824
-0.0280377 0.0467491 -0.0217155
0.00549023 0.000230782 -0.0107908
-0.022516 0.0443957 0.0204474
-0.00303524 0.0481407 0.00042449
0.00598369 0.000231041 -0.0109025
0.00698025 0.000231993 -0.0108428
0.012594 0.0214664 -0.0111971
-0.000481439 0.0117117 -0.0131166
0.00742655 0.000232512 -0.0107541
-0.0139672 0.0451736 0.00664946
0.00798262 0.000232945 -0.0107864
0.0111071 0.0262549 -0.0086066
-0.043524 0.0462751 -0.0287497
0.00353347 0.0484824 -0.00804449
0.00899029 0.000233896 -0.0107331
0.00997438 0.000234761 -0.0107239
0.0105078 0.000235107 -0.010801
0.0191459 0.0473538 -0.0176357
-0.022614 0.038804 0.0165203
0.0109633 0.000235626 -0.0107175
0.0113604 0.000235972 -0.0107158
0.00149231 0.025784 -0.0106188
0.017905 0.0284337 -0.00745069
0.0118181 0.000236491 -0.0106337
0.00933086 0.0213537 -0.00775431
0.0970303 0.0664875 -0.0449354
0.012277 0.00023701 -0.0105523
0.0211038 0.00824757 -0.0103368
0.0127975 0.000237702 -0.0103908
0.0174253 0.038399 -0.000130083
-0.0613442 0.0570288 -0.00811513
0.0132591 0.000238221 -0.0103109
0.0137826 0.000238913 -0.0101513
-0.0598594 0.0553878 -0.00989611
0.0147734 0.000240124 -0.00991505
0.01051 0.0479513 -0.0157675
0.0153015 0.000240816 -0.0097581
0.0160045 0.000241594 -0.00964438
-0.0210099 0.0465224 0.00808862
0.0181006 0.0402532 -0.00155922
0.0166483 0.0002422 -0.0096119
0.0206552 0.0253596 -0.00719101
0.0171201 0.000242719 -0.00953788
0.0176554 0.000243411 -0.00938506
0.00746939 0.00165166 -0.0112406
0.0192711 0.000245487 -0.00893226
0.0204198 0.000247044 -0.0085562
-0.0302097 0.0460031 -0.0295547
-0.0573949 0.0454428 -0.00854775
-0.0210459 0.0436777 0.0130746
0.0214483 0.000248255 -0.00834173
0.018362 0.0260481 -0.0079455
0.00645708 0.0467114 -0.00263103
0.0122989 0.0145606 -0.0126433
0.0211038 0.0052466 -0.0103368
-0.0395892 0.0460435 -0.0216569
0.0225012 0.00024912 -0.00837227
-0.0113654 0.0346172 -0.00452332
0.015129 0.0483335 -0.0110442
0.00211364 0.038249 -0.00491536
0.00607353 0.0488781 -0.00824083
0.00259941 0.000539604 -0.0106229
0.00311402 0.000696192 -0.0106891
-6.21015e-05 0.0238072 -0.010472
0.0103488 0.0159395 -0.0104782
0.00357691 0.000645593 -0.0106484
-0.0370142 0.0468139 -0.0153493
0.00692285 0.000705137 -0.0109251
0.0124668 0.0472251 -0.0182251
0.00106829 0.0387796 -0.0047737
0.0100536 0.000713558 -0.0108851
0.00987648 0.00166779 -0.0111293
0.0199828 0.0116784 -0.0106711
0.00972179 0.0650526 0.000853432
0.00395649 0.00455924 -0.0122147
0.0116984 0.000718294 -0.0107955
0.0126357 0.00628759 -0.0127223
0.012187 0.000720076 -0.0106735
-0.0155362 0.044482 0.00920077
0.0127372 0.000560845 -0.0104715
0.0162086 0.000735337 -0.0096467
-0.0602828 0.0562999 -0.00318535
0.0206226 0.00789736 -0.0104054
0.0213646 0.0287291 -0.00575309
0.00514935 0.0392985 -0.00435862
0.0114114 0.0762252 -0.00901327
0.00195263 0.0312241 -0.010288
0.0171201 0.0005731 -0.00953788
0.0175931 0.000739869 -0.00946456
-0.0206003 0.0401783 0.0147802
0.0191767 0.000745861 -0.00905098
0.00275848 0.0303564 -0.0109457
0.0197183 0.000747966 -0.00890177
0.0201981 0.000749544 -0.00883239
-0.022454 0.0466317 0.00874919
0.0220656 0.000755333 -0.00864042
0.0224549 0.000756064 -0.00869196
0.00535253 0.054358 -0.00817097
0.0229093 0.000757321 -0.00866563
-0.00205113 0.000833288 -0.0110556
0.0147123 0.000893177 -0.00999525
-0.00189267 0.00113624 -0.011378
-0.00157627 0.00113712 -0.0114452
0.0140147 0.0163794 -0.01144
-0.0115137 0.0456916 0.00306784
0.00911022 0.00721129 -0.0113797
0.00200148 0.00115647 -0.0109705
-0.0434718 0.0469384 -0.00705997
0.00243453 0.00115911 -0.0108741
-0.0366321 0.0469299 -0.0166092
0.0211016 0.00326658 -0.00929628
-0.0029502 0.0446448 -0.000432904
0.00365766 0.00132171 -0.0107143
0.00401162 0.00132314 -0.0107455
0.00454059 0.00137838 -0.0107044
-0.0464806 0.0458795 0.0227941
0.0174685 0.00272251 -0.00962357
0.00647797 0.00117582 -0.0110147
-0.0288832 0.0443825 -0.0211407
0.00741936 0.00117978 -0.0110386
0.00204527 0.0191917 -0.00957166
-0.00294346 0.040468 -0.00338127
0.0140011 0.00797091 -0.0117208
0.0103493 0.0415205 -0.0030884
0.00895268 0.00118637 -0.0110578
-0.0510742 0.0459192 -0.00827099
0.00999456 0.00119165 -0.0109665
0.0103301 0.00119253 -0.0110448
0.0109832 0.00119604 -0.0109599
0.0126167 0.00120572 -0.0106329
0.00654167 0.0706865 0.0022276
-0.0246104 0.0482008 0.00831985
0.0130777 0.00120836 -0.0105526
0.0107015 0.0228419 -0.00721776
0.0226802 0.0272225 -0.0062817
0.0273879 0.0478933 -0.0140804
-0.00888543 0.00325835 -0.00768718
0.0141251 0.00121539 -0.0102336
0.0154305 0.0479436 -0.0205713
0.0171201 0.00123386 -0.00953788
0.0109683 0.00754804 -0.0120483
0.0175931 0.0012365 -0.00946456
0.0237574 0.0138033 -0.00921303
-0.0304802 0.0414894 -0.0150803
-0.00789561 0.0352278 -0.00387079
-0.0152893 0.0444503 0.00894278
-0.0132274 0.0437828 0.00711723
0.0180673 0.00123914 -0.00939195
0.0178861 0.0263276 -0.00801717
-0.0534001 0.0455262 0.0116048
0.0201032 0.00125145 -0.00895077
-0.0472897 0.0456933 0.0215292
0.0214213 0.00125761 -0.00890349
-0.0179349 0.0392441 0.00677514
0.00786001 0.037717 -0.00499987
0.0223262 0.001262 -0.0088486
0.0100006 0.00402886 -0.012298
0.0226189 0.001262 -0.00901756
-0.0300456 0.0442756 -0.0186221
-0.0146074 0.0478081 0.00439215
0.0233 0.0128045 -0.00871799
0.0231057 0.00126464 -0.00895226
0.0235939 0.00126728 -0.00888765
-0.00155047 0.00143937 -0.0116911
-0.0555453 0.0458414 -0.00921148
0.00748373 0.0168513 -0.00928595
0.00888694 0.0785875 0.00468407
-0.00110223 0.00144048 -0.0118344
0.00140601 0.00145944 -0.0113195
0.00194673 0.00146501 -0.0110544
0.00430115 0.0567948 -0.00744848
0.0229572 0.0474417 -0.016372
0.00232461 0.00146724 -0.0110416
0.006557 0.00164684 -0.0111757
0.00802741 0.00170855 -0.0111779
0.0119167 0.0217562 -0.011037
0.00948289 0.00166522 -0.011133
-0.00854795 0.0397307 -0.00218549
-0.0555602 0.0458556 -0.00377574
0.0207178 0.0105368 -0.0108067
0.00421578 0.0027171 -0.0115561
0.0104982 0.00167205 -0.0110841
-0.038825 0.0460729 0.0296902
0.0110919 0.00167575 -0.0110805
-0.00325131 0.0380533 -0.00262619
0.0080555 0.00416367 -0.0120409
-0.0022113 0.0107794 -0.0124643
-0.000198277 0.0782378 0.00992942
0.0115787 0.00151964 -0.0109574
0.0120368 0.00152299 -0.0108754
-0.0497505 0.0455317 -0.0361707
0.00486774 0.00272122 -0.0117016
0.0016182 0.0277932 -0.0115575
0.0188031 0.00421928 -0.0100477
0.0124359 0.00168617 -0.0108749
0.0134186 0.0016948 -0.0106339
0.0144375 0.00170398 -0.0103562
0.0149339 0.00170835 -0.0102387
0.0174996 0.00173122 -0.00958382
0.0233601 0.0275069 -0.00598142
-0.00893876 0.0346324 -0.00496207
0.0202028 0.0035895 -0.0093547
-0.0307606 0.0448667 -0.0201146
-0.0454447 0.0467975 -0.00667149
-0.0547212 0.0459944 0.00203297
0.0258203 0.0473054 -0.00936479
0.0089534 0.0087646 -0.0118665
0.0209703 0.00175957 -0.0089318
-0.020096 0.0372786 0.0128148
0.0224024 0.0017121 -0.00893107
-0.00141883 0.00174338 -0.0117671
0.00479947 0.056753 -0.00785166
-0.0374589 0.0453032 0.0303256
0.0280978 0.0097116 -0.0061764
-0.0010489 0.00174608 -0.0117497
-0.00446128 0.0378355 0.000304808
-0.0644702 0.0572926 0.00169557
0.0163927 0.0477103 -0.00126597
1.18441e-05 0.00175283 -0.0117848
0.0024876 0.0348588 -0.00732518
0.00178247 0.00177038 -0.0113059
0.00600436 0.00864704 -0.0122424
0.00248648 0.00177781 -0.0110773
-0.0535317 0.0458031 -0.0241727
0.00351873 0.00178659 -0.0109227
-0.0514915 0.0456193 0.0126391
0.0243487 0.0471232 -0.0138268
0.00548458 0.00179807 -0.0110762
0.00739456 0.00321492 -0.0118903
-0.0164632 0.0333447 -0.00269628
0.0235289 0.00194459 -0.00896562
-0.0460286 0.0463568 -0.00617272
-0.00190189 0.0532781 0.00248369
-0.00984761 0.040289 -8.79969e-05
-0.0613588 0.0570368 -0.0023332
-0.041425 0.0456435 -0.0178835
-0.00917614 0.00205214 -0.00694198
0.0104415 0.00656225 -0.0124947
-0.043091 0.0458878 -0.0191155
-0.00857488 0.00218826 -0.00838609
-0.005431 0.0345229 -0.0042545
-0.00840897 0.00218496 -0.00871281
-0.0149646 0.0476996 0.00477155
-0.00791288 0.00217939 -0.00937452
0.0110926 0.0417536 -0.0025938
0.0144391 0.048913 -0.00764359
-0.000505854 0.00220751 -0.0117457
6.57835e-05 0.00221301 -0.0117005
0.00755016 0.00979699 -0.0122111
0.00046605 0.00221733 -0.0116429
0.00807961 0.0478081 -0.00870622
-0.018486 0.0451817 0.00928726
0.000894509 0.00222244 -0.0115438
0.00151226 0.0022292 -0.0114386
0.0272402 0.0089325 -0.00718237
-0.00698893 0.0337161 -0.00416332
-0.0406418 0.0458317 -0.0181625
0.00732579 0.0608754 -0.00342126
0.0029721 0.00224526 -0.0111845
-0.0497487 0.0450695 -0.0318994
0.0044405 0.00225719 -0.011224
-0.0155551 0.0478056 0.0052857
0.0100197 0.00922477 -0.0118278
0.00542152 0.00210606 -0.011444
0.00604896 0.0022648 -0.011633
0.00563534 0.00522931 -0.0116829
4.751e-05 0.0117345 -0.0131333
0.00690807 0.00211716 -0.0114939
0.00751931 0.00212271 -0.0114426
0.00807414 0.00212668 -0.0114744
0.0085229 0.00213143 -0.011387
0.010021 0.00225069 -0.0112897
0.00076717 0.0318264 -0.00944959
-0.0589778 0.056673 -0.00871158
0.0105175 0.00230739 -0.0113262
-0.0215883 0.0424856 0.0205469
0.0255767 0.0480731 -0.075427
-0.00963503 0.0422197 0.00105945
0.0108832 0.00231 -0.0113641
-0.00558211 0.00876875 -0.0113553
0.0120019 0.00226734 -0.0112786
0.0125033 0.00232442 -0.011318
0.00202889 0.00474739 -0.0116792
0.0207849 0.0481293 -0.0181201
0.0131152 0.00217267 -0.0110362
0.00921593 0.0380952 -0.00416612
-0.0022637 0.0589321 -0.00723785
0.0136381 0.00217901 -0.0108762
0.0141015 0.00218377 -0.0107973
0.00949275 0.00831832 -0.0116583
0.022539 0.00328147 -0.00937559
0.0150028 0.0465918 -0.0182459
0.0193453 0.00519472 -0.0109381
0.0146275 0.00219011 -0.0106391
-0.00513985 0.0446918 -0.00072756
0.0152165 0.00219804 -0.0104018
0.00468091 0.0241952 -0.0097462
0.0158076 0.00220597 -0.0101658
0.0174732 0.0232853 -0.00800967
0.0175308 0.00222817 -0.00954407
0.0184801 0.00223769 -0.00939933
-0.00544926 0.040737 -0.00374359
0.0199765 0.00225355 -0.00910859
-0.0215555 0.0419942 0.018565
0.00402831 0.0497152 -0.00844566
0.0120117 0.047423 -0.0183087
0.0139534 0.011851 -0.0115201
-0.0109795 0.0422507 0.00195112
0.0217129 0.00226782 -0.00907186
0.0221332 0.00227099 -0.00908358
0.0224898 0.00227258 -0.00917397
-0.00155584 0.0351481 -0.00787747
0.0229115 0.00227575 -0.00918652
0.023399 0.00228051 -0.00912157
0.018077 0.0113775 -0.011476
0.00795771 0.00243882 -0.0116381
-0.00500075 0.0332087 -0.0076206
0.00840604 0.00244428 -0.0115505
-0.0511872 0.0455549 -0.0261036
0.0161599 0.00670873 -0.0123322
0.0135343 0.00265658 -0.0112782
0.0149705 0.00267962 -0.0107217
0.0123598 0.00469456 -0.012563
-0.0510219 0.0198279 -0.053681
0.0201109 0.0480868 -0.0188856
-0.0475158 0.0453125 0.0259322
0.0105486 0.00624345 -0.0126143
-0.0181384 0.0393014 0.0071236
0.0168406 0.00271179 -0.00989616
0.0180048 0.00256449 -0.00947134
0.00900569 0.0507234 -0.0101646
0.0220689 0.00277475 -0.00916191
0.0129685 0.00328481 -0.0117597
0.0287981 0.00271931 -0.0058879
0.0274003 0.0480902 -0.0145494
-0.00838496 0.00279 -0.00866894
-0.00182904 0.0481926 -9.87078e-05
-0.0240769 0.0471422 0.0103213
-0.00808916 0.00278566 -0.00907067
-0.00740332 0.00263071 -0.00969757
-0.0519071 0.0457205 0.00866437
0.0069132 0.0487704 -0.00699356
-0.0489863 0.0452577 0.0232016
-0.000995572 0.00266157 -0.011665
-0.0175945 0.037012 0.00265262
-0.00383101 0.0380378 -0.00102133
0.000146692 0.00282812 -0.0115739
0.000493121 0.00283144 -0.0116008
0.0182378 0.0229999 -0.00810474
0.000921683 0.00268419 -0.0115018
-0.00943801 0.0543972 2.19387e-05
-0.0459222 0.0474966 0.0163519
0.0161285 0.0062212 -0.0123718
0.00151231 0.0026914 -0.0114386
-0.00233391 0.0556533 0.00238671
0.00299565 0.00270682 -0.011429
0.00541474 0.00272636 -0.0117287
0.000730838 0.00992072 -0.0134701
0.0123521 0.0101781 -0.0115194
-0.00160382 0.0342476 -0.00815767
-0.0174762 0.037606 0.00373904
0.00789949 0.00275207 -0.0117199
0.0110778 0.0275458 -0.00864741
0.000601407 0.00360334 -0.0114323
0.0091299 0.00276647 -0.011622
0.0168497 0.0155683 -0.0114602
0.00991545 0.00277469 -0.0116137
0.0104473 0.00277881 -0.0116897
-0.00361398 0.0399118 -0.00391791
-0.0484093 0.0453078 0.0230416
0.01104 0.00278498 -0.0116856
0.00910357 0.0420199 -0.00433219
0.0119719 0.0027932 -0.0117617
-0.0495532 0.0452532 0.0213349
-0.00657817 0.004299 -0.00976983
0.0122989 0.012332 -0.0126433
0.00308015 0.0301341 -0.0112084
-0.0508166 0.0454339 0.0154825
0.0131511 0.00280966 -0.0115188
0.0114115 0.0072327 -0.0122465
0.0154992 0.0028508 -0.010565
0.0969481 0.0669292 -0.044657
0.0179423 0.00289399 -0.00955072
0.0264135 0.00318783 -0.00762882
-0.00675125 0.00293189 -0.0100741
-0.0203135 0.0337868 0.00173986
-0.00014539 0.00298003 -0.0114631
0.00148494 0.00315238 -0.0114806
-0.0128021 0.0425258 0.00646751
0.0234968 0.0141028 -0.00952443
-0.0516797 0.0459311 0.00743608
0.0219402 0.0126978 -0.00931855
0.0219403 0.0167976 -0.0103579
-0.0528951 0.0458327 0.0053088
0.00204983 0.00315961 -0.0114603
0.0316943 0.049281 -0.0118324
0.014076 0.0033065 -0.0113599
0.00487033 0.0448761 -0.00235002
0.00234476 0.00316075 -0.0115728
-0.0535604 0.0449577 0.0136026
0.00354341 0.00322568 -0.0116298
0.00399509 0.00312628 -0.0116981
-0.0306524 0.0475101 -0.0205234
0.0095153 0.00329502 -0.011806
-0.0550499 0.0458823 0.000375223
0.0143888 0.015055 -0.0120024
-0.0178478 0.0337847 -0.00106934
-0.045087 0.0471377 0.0177171
0.00449972 0.00323218 -0.011874
-0.00394219 0.0457179 -0.0106566
0.00497435 0.00303161 -0.0118209
0.00546435 0.00303505 -0.0119306
-0.0299543 0.0443974 -0.0197718
0.00656242 0.00304651 -0.0119872
-0.0165755 0.0387938 0.0054707
0.00795163 0.00327551 -0.011827
-0.00476202 0.0414682 -0.00337056
0.0104955 0.00325234 -0.0118908
0.0114543 0.00310382 -0.0119248
0.0165302 0.00368641 -0.0102942
0.0163172 0.0184501 -0.0116147
0.0134602 0.00329319 -0.0116395
-0.050968 0.0464036 0.00506221
0.0160294 0.00318634 -0.0104093
-0.0197533 0.0422311 0.0118665
0.0173439 0.00321385 -0.00978258
0.0193712 0.00324594 -0.00933643
0.0197866 0.00325053 -0.00934532
0.018583 0.0092715 -0.011364
-0.00460032 0.0332087 -0.00785178
0.0241483 0.00331242 -0.0087459
0.00850384 0.00874501 -0.0119534
0.00948145 0.0192141 -0.0132683
-0.0224662 0.0434716 0.0222085
0.0248352 0.00332618 -0.00844963
-0.0416674 0.0582713 -0.00873681
-0.0555313 0.0441983 0.0104681
0.0161338 0.0292337 -0.00758283
-0.0204364 0.0370728 0.0128382
-0.00271463 0.038211 -0.00489904
0.0273722 0.00338348 -0.0070276
-0.0087654 0.00325077 -0.00810288
-0.00859879 0.00324571 -0.00843002
-0.0119328 0.0399905 -3.87984e-05
-0.00808916 0.00323813 -0.00907067
-0.00711798 0.00323434 -0.00980459
-0.00346855 0.0267408 -0.0110455
-0.0449127 0.0437952 0.0323967
-0.00556945 0.00952051 -0.0113337
-0.0067018 0.0032356 -0.00998713
0.0399199 0.0490308 -0.0672728
0.00759938 0.0141895 -0.0105074
-0.000517566 0.0032811 -0.0114791
4.11055e-05 0.00328869 -0.0114553
0.0270096 0.0480726 -0.0741951
0.00502396 0.00333924 -0.0120227
-0.00257023 0.0364105 -0.00590617
-0.0545404 0.0458504 0.00281387
0.0254091 0.047274 -0.00427764
0.00650481 0.00335694 -0.0120694
0.0248033 0.00501725 -0.00900856
0.011532 0.00342013 -0.0120851
0.0119289 0.00342519 -0.0120833
0.0202731 0.040766 -0.00212069
-0.014306 0.0443233 0.00791314
0.0123872 0.00343277 -0.0120015
0.0152524 0.00349344 -0.0108844
-0.0545195 0.0567512 -0.00722873
0.0158437 0.00366927 -0.0106485
-0.00367318 0.00924946 -0.0119666
0.0180084 0.00366179 -0.00981982
-0.000688316 0.0707033 0.00975048
-0.0244041 0.0463718 0.0122999
0.019565 0.00374196 -0.00962152
0.0232042 0.00379638 -0.00935547
0.00810258 0.0711738 0.000864525
0.00383413 0.0202463 -0.00931505
-0.0552007 0.0572699 -0.0109115
0.00695155 0.00670306 -0.0108839
-0.0583443 0.0472321 -0.00903885
0.0241483 0.00365269 -0.0087459
-0.0269561 0.0457364 -0.0365524
-0.0254505 0.0464425 0.0137124
0.0248352 0.00366786 -0.00844963
0.0255245 0.00368303 -0.00815477
0.0192816 0.0167379 -0.0110168
0.00989818 0.0422885 -0.00375172
0.0262819 0.00370072 -0.00778382
0.00467901 0.0482706 -0.00628101
-0.0188821 0.0347499 0.00039378
0.0105253 0.00977055 -0.0118503
0.0198869 0.0177909 -0.0107889
0.0282026 0.00375128 -0.00658327
-0.00841994 0.00370214 -0.00841781
-0.00838496 0.00354531 -0.00866894
-0.0564012 0.0569116 -0.0096988
-0.0424146 0.0441629 0.031705
-0.00754231 0.0036921 -0.00932865
0.010927 0.0228255 -0.00746339
-0.0671554 0.0571551 -0.00348986
-0.0499993 0.0451761 0.0202646
-0.0214932 0.0456391 0.010908
-0.0191083 0.0391458 0.011725
0.0165428 0.0407825 -0.00135262
0.00607493 0.0489153 -0.00708695
-0.00706882 0.0035384 -0.00971749
-0.0140287 0.0476518 0.00425049
-0.0067018 0.00353702 -0.00998713
-0.0355046 0.0471753 -0.0113712
0.0214572 0.0473898 -0.0156792
0.00735376 0.00810833 -0.0114048
-0.00646559 0.00368635 -0.0101812
-0.0514989 0.0198606 -0.0533766
0.00149857 0.00376909 -0.0114596
0.00199487 0.00361992 -0.011544
-0.0184525 0.0359745 0.00141595
0.00245091 0.00377698 -0.0116919
0.00735141 0.069325 0.000951818
0.00350253 0.00373595 -0.0118756
0.00662782 0.0255166 -0.00856085
0.0144683 0.0277106 -0.00869973
0.00393487 0.0036365 -0.0119713
-0.0471268 0.0450998 0.0284788
0.00443868 0.00374256 -0.0121467
-0.029054 0.043647 -0.0153553
0.0133406 0.0479533 -0.012321
-0.00226422 0.0101682 -0.0125492
0.00597566 0.00381311 -0.0122836
0.01803 0.0158166 -0.0112756
-0.00445506 0.00774473 -0.0115152
0.00683345 0.0038289 -0.0121437
0.0250481 0.0258348 -0.0066096
-0.021489 0.0381515 0.0152357
0.00772482 0.003689 -0.0119655
-0.0429515 0.0592515 -0.0081494
0.00928611 0.00371111 -0.0119431
0.00989332 0.00371387 -0.0121782
0.0243735 0.0471547 -0.00662424
-0.00879173 0.0416886 -0.00081306
0.0124954 0.00375117 -0.0121218
0.0138921 0.00378295 -0.0116002
0.0144787 0.00379677 -0.0113615
-0.0208986 0.0396181 0.0154144
-0.0149693 0.0377071 -0.00174978
0.00444872 0.0416779 -0.00464693
-0.0227148 0.0469925 0.00849557
0.00959611 0.0052766 -0.012584
0.00932304 0.0112675 -0.0124263
0.00955065 0.0258358 -0.00828536
0.0252465 0.0476331 -0.0159617
0.015129 0.00381335 -0.0110442
0.00562571 0.033638 -0.00890604
-0.0264296 0.0462806 0.014855
0.0272027 0.0100009 -0.00669882
0.0185162 0.00388796 -0.00988204
0.0240506 0.0041586 -0.00886268
0.0104174 0.00818408 -0.0117303
0.0249832 0.0041805 -0.0085351
0.0160489 0.041281 -0.0011541
0.0262162 0.0040427 -0.00786131
-0.00251797 0.0376774 -0.00328054
0.00204983 0.0039314 -0.0114603
-0.017046 0.054903 0.00314425
-0.00393295 0.0319757 -0.00823709
0.00705588 0.00414647 -0.0120989
0.014241 0.048328 -0.0201155
0.0236597 0.00617258 -0.0093298
-0.0500727 0.0467484 -0.0322665
0.00850384 0.00401536 -0.0119534
-0.0550842 0.0460447 0.00316632
-0.0108745 0.0443899 -0.00180453
0.00955242 0.00423288 -0.0122893
0.0105612 0.00403636 -0.0123329
-0.0500482 0.0453914 0.0168865
0.011489 0.00404835 -0.0124066
-0.0195386 0.0397554 0.0124353
0.0120095 0.040714 -0.00185303
0.0120839 0.00405735 -0.0124037
0.0137083 0.00409633 -0.0118404
-0.0114902 0.0596778 0.00112978
0.0155961 0.00414731 -0.0109674
0.0125439 0.0192646 -0.0133622
0.0161886 0.0041623 -0.0107322
0.0275644 0.011261 -0.00627257
-0.0119239 0.046293 0.00370886
-0.0404078 0.0478548 0.0284101
0.01928 0.00422828 -0.00997663
0.0198217 0.00424027 -0.00982747
0.00461722 0.0587577 -0.00578344
0.000874863 0.0248264 -0.0104355
0.0203012 0.00424927 -0.00975792
0.0214734 0.00427026 -0.00962639
0.0190645 0.0409766 -0.00200025
0.0225878 0.00428825 -0.00957697
-0.0535294 0.0460904 -0.00639162
-0.00796838 0.00415118 -0.00885172
0.00995535 0.0748179 -0.00771071
-0.00686433 0.00414632 -0.00966235
-0.00639111 0.00414309 -0.010051
0.00468844 0.0501067 -0.00859584
0.00119697 0.029645 -0.010506
0.00103037 0.00422718 -0.0113336
0.00151221 0.00423203 -0.0114386
0.0109258 0.0111802 -0.0123702
0.00242328 0.0042385 -0.0117336
0.0013323 0.0472762 -0.00914079
-0.0259706 0.0464926 0.0141859
0.0366045 0.0484488 -0.0115496
0.0184242 0.0110579 -0.011561
0.00285189 0.00424011 -0.0119234
-0.0214353 0.0490262 0.00608256
0.00355454 0.00424982 -0.0119826
0.0151892 0.0376484 0.000929999
0.0223792 0.0473243 -0.0153455
0.00398468 0.00425143 -0.0121733
0.0185202 0.015056 -0.0109236
0.010973 0.00435331 -0.0125707
0.0135857 0.00441153 -0.0120006
-0.0541055 0.0455277 0.0102223
0.0164717 0.00448915 -0.0108956
0.0210715 0.00459265 -0.00985628
0.0138336 0.0194363 -0.0127211
-0.0512217 0.0459944 1.25375e-05
0.0219734 0.00460882 -0.00979962
-0.0032628 0.038211 -0.00458255
-0.01687 0.0321938 -0.00261539
0.0223935 0.00478307 -0.00981122
0.02757 0.0133161 -0.00679545
0.024443 0.00467351 -0.00891604
0.025 0.00468644 -0.00877571
0.00170033 0.00469786 -0.0114318
-0.0100411 0.0431288 0.000716575
0.00247696 0.0046505 -0.0117454
-0.0539562 0.0456746 0.00927007
-0.0264743 0.0412448 -0.0173354
0.00447162 0.00456618 -0.0122812
0.00535036 0.004587 -0.0120957
-0.059539 0.0541859 -0.0111203
-0.010322 0.0434058 0.00110965
0.00656802 0.00482602 -0.011798
0.00939489 0.0359238 -0.00507775
-0.0154297 0.0519404 -0.000906631
0.0143557 0.00831437 -0.0115214
0.00745257 0.00478941 -0.0118083
0.00894296 0.00480543 -0.0121492
0.0119018 0.00468415 -0.012645
0.0247999 0.0125862 -0.00796738
0.0145738 0.00475702 -0.0117628
0.015101 0.00477089 -0.0116053
-0.0357643 0.0470012 -0.0113367
0.0156919 0.00478824 -0.0113691
0.0251311 0.0142601 -0.00862047
-0.0531954 0.046401 -0.0323343
-0.0264988 0.0436858 -0.016715
-0.0105711 0.0428259 0.00206177
-0.00343048 0.0102768 -0.0117603
0.0400109 0.0492206 -0.0676333
-0.00450053 0.0508845 0.00219423
0.0165673 0.00480559 -0.0112972
0.0112561 0.048025 -0.0119258
0.0191864 0.00487152 -0.0106154
0.0212968 0.00492356 -0.0101018
0.0239422 0.00522365 -0.00916578
0.00317502 0.00486125 -0.0119945
0.00552134 0.00490942 -0.011848
0.0143709 0.0476378 -0.0199595
0.0120652 0.00510678 -0.0127779
0.0216513 0.0475302 -0.0142324
0.00548458 0.0077554 -0.0110762
0.0134602 0.0116596 -0.0116395
0.017258 0.00513914 -0.011465
0.0205585 0.00523177 -0.0104838
0.0220329 0.0380746 -0.00267479
-0.0574317 0.0544592 -0.00471595
0.010075 0.00672433 -0.0121965
0.0285716 0.0142445 -0.00668085
-0.0201491 0.0417179 0.0126723
0.0216507 0.00526142 -0.0101907
0.0259868 0.0053911 -0.00865263
-0.00314213 0.0347837 -0.00719256
0.00290747 0.0053248 -0.01184
0.00607757 0.00524114 -0.0115918
-0.0115831 0.0447304 -0.000760321
0.00652101 0.00525296 -0.0115014
-0.0155709 0.0351773 -0.00232621
0.00894296 0.00527857 -0.0121492
-0.000504179 0.00779321 -0.0128725
0.00934515 0.0138415 -0.0118618
0.0108958 0.0068941 -0.0124106
0.011522 0.00530419 -0.0128877
-0.0051079 0.038261 -0.00201616
-0.0197349 0.0357813 0.00400384
-0.00454597 0.0481303 0.000719363
0.0126357 0.00533177 -0.0127223
0.015133 0.00540271 -0.0120857
-0.0522177 0.0462273 -0.0292807
-0.028591 0.0446047 -0.0217424
0.00811176 0.00656225 -0.0111497
0.0154749 0.00540665 -0.0121676
0.0174777 0.00546182 -0.0117074
-0.0294643 0.0431723 -0.0150895
0.0180136 0.00547758 -0.0115549
0.0197591 0.00553275 -0.010946
0.00769914 0.0213305 -0.00698545
0.0227017 0.0310923 -0.00294544
0.0208786 0.00573249 -0.0106109
0.0215216 0.00558792 -0.0103471
0.00999074 0.0133145 -0.0128407
0.0236271 0.00566279 -0.00936872
-0.0206113 0.0412221 0.0142671
-0.0499918 0.0451275 -0.0250617
0.024541 0.0056825 -0.00931903
-0.0677966 0.0566914 -0.00358156
0.017887 0.00971873 -0.0117127
0.0188688 0.0157256 -0.0110094
0.00334234 0.00549168 -0.0117447
0.00752187 0.00569848 -0.0113479
-0.0097961 0.039823 -0.000695077
0.0075543 0.0504991 -0.0100195
0.00613103 0.0217721 -0.0075812
0.00846975 0.00575711 -0.0117316
0.0144361 0.0481384 0.000152336
0.00287419 0.032391 -0.0102042
-0.055676 0.0459843 0.000274805
0.019025 0.0487999 -0.00844374
0.00892398 0.00576036 -0.0119073
-0.00231439 0.0117117 -0.0120583
0.0190319 0.0479672 -0.0196483
0.0104287 0.0057603 -0.0127761
0.0109897 0.00577104 -0.0128112
0.0139255 0.0466821 -0.0188364
0.0126357 0.00580969 -0.0127223
-0.018653 0.0388396 0.0101919
0.0239475 0.0474034 -0.0079371
0.0159887 0.00573599 -0.0122911
0.0167547 0.00575896 -0.0120982
-0.0059067 0.0521658 0.00341023
0.0196312 0.00585501 -0.0111032
0.00966628 0.0271714 -0.00812118
0.0241162 0.00618326 -0.00930472
0.024541 0.00602206 -0.00931903
0.0251639 0.00604294 -0.00910132
-0.0615398 0.0538023 -0.00326795
0.00686235 0.00915251 -0.0121026
0.0151839 0.0559263 -0.00495591
0.0255296 0.04796 -0.0161252
0.0259868 0.00624778 -0.00865263
0.0135564 0.00615547 -0.0125611
0.0158727 0.026068 -0.0084713
0.0140186 0.00616905 -0.0124815
0.0143583 0.0060131 -0.0125622
-0.0153835 0.056404 0.00460927
-0.0154313 0.0506967 -0.00275317
-0.0178874 0.0436777 0.011251
0.00869817 0.00721129 -0.0111418
0.0183289 0.00629809 -0.0116791
-0.00257656 0.0263271 -0.0113296
0.0055411 0.0391915 -0.00435386
0.0207821 0.00622486 -0.0107284
-0.00673913 0.0512285 0.00250519
0.0126299 0.0172341 -0.0116797
0.0205167 0.0339866 -0.00122209
-0.0489883 0.0452745 0.0221635
0.0218108 0.00625574 -0.010514
0.022487 0.0477731 -0.0171398
0.0228144 0.00630427 -0.00982331
-0.0170233 0.0472375 0.00674921
0.0252955 0.00639251 -0.00894631
0.00377845 0.00612494 -0.01165
0.0189085 0.0391514 -0.000755466
0.00432814 0.00614818 -0.0113901
0.00620531 0.00621324 -0.0108573
0.0200316 0.0398121 -0.00157704
-0.00305145 0.052555 0.00245457
0.00796098 0.016254 -0.00915735
0.00190082 0.0327526 -0.00941128
-0.0125197 0.0468438 0.00318678
0.00893402 0.00624577 -0.0116244
0.00977443 0.00623647 -0.0123405
-0.0275569 0.0409267 -0.0168835
0.0110499 0.00625041 -0.0127305
-0.0022113 0.0104778 -0.0124643
0.0114451 0.00625971 -0.0127278
-0.0162743 0.0406225 0.00743299
0.0110759 0.00722735 -0.0121682
0.0293681 0.0129496 -0.00575509
0.0218108 0.00675662 -0.010514
-0.0137929 0.031688 -0.00462292
-0.0539661 0.046654 -0.0279056
0.0079938 0.0247986 -0.00882988
0.0241816 0.00669654 -0.00922698
0.0253612 0.00673837 -0.00886881
0.00350301 0.0412141 -0.0042164
-0.0370054 0.0477172 -0.016971
0.0261847 0.00677554 -0.00842048
-0.0651748 0.0574881 0.00310315
-0.000986948 0.0532622 0.00241733
0.00652042 0.00674975 -0.0107697
0.00850937 0.00678007 -0.0112252
0.00901893 0.00667116 -0.0115964
0.0210961 0.0474519 -0.0163368
0.00961924 0.00656225 -0.01202
-0.0123916 0.0466972 -0.00123656
0.0115056 0.00658179 -0.0126472
0.0251762 0.0285626 -0.004836
-0.0529581 0.0461073 -0.00735653
0.0349683 0.0489484 -0.0112978
0.0135665 0.00685729 -0.0123744
0.0144202 0.00665991 -0.0124824
0.00939127 0.0220592 -0.00738504
-0.00553693 0.0337668 -0.00477068
0.0150241 0.00667456 -0.0124847
0.0190267 0.00682103 -0.0113315
-0.05437 0.0459481 -0.0145666
0.0202378 0.00686986 -0.010876
0.0197727 0.0487187 -0.0206534
0.0228144 0.00697728 -0.00982331
0.000534808 0.0231747 -0.0105856
-0.0598188 0.0469595 0.0152529
0.00353029 0.048025 -0.00746531
0.0131511 0.00827801 -0.0115188
0.00487987 0.00679685 -0.0111312
-0.0421226 0.0582713 -0.00847402
0.00532047 0.00681221 -0.0110392
0.0206552 0.0267169 -0.00719101
0.0128725 0.010208 -0.0113579
0.0392445 0.0488967 -0.0127274
-0.0204515 0.0432384 0.0123274
