ply
format ascii 1.0
comment Created by Open3D
element vertex 1518
property float x
property float y
property float z
end_header
0.0474863 0.0291247 -0.0329913
0.0315205 -0.00269285 -0.0438715
0.0459108 -0.00304565 -0.00548013
0.0413458 0.00154452 -0.0387869
0.0380542 0.0246901 -0.0441549
0.0465484 0.0331189 -0.0309257
0.0496504 0.0312762 -0.00390301
0.0472929 0.0147356 -0.0370863
0.0319795 -0.00272049 -0.0436099
0.0504327 -0.00185366 -0.0130479
0.032598 -0.00271297 -0.0430386
0.0468975 0.032749 -0.0304378
0.0332931 -0.00271442 -0.0417346
0.0460756 -0.00182739 -0.00452797
0.0684318 0.0473599 0.0409273
0.0413452 0.0051625 -0.0401879
0.0459208 0.0480432 0.0399372
0.0336623 -0.00274477 -0.0404951
0.0486836 -0.00279106 -0.0169774
0.0403635 0.0488294 0.0545116
0.0529111 0.00426628 -0.0185152
0.0487199 -0.00279575 -0.0166147
0.0539782 0.0102502 -0.0154737
0.0392695 0.0471758 0.0160167
0.0506006 0.000266986 -0.00865704
0.0472929 0.016726 -0.0370863
0.0527589 0.00755653 -0.00901883
0.0491496 -0.00280981 -0.0149705
0.054254 0.0166616 -0.0118294
0.0494914 -0.00272308 -0.0145184
0.0364068 0.0480708 0.0180584
0.0495951 -0.0026712 -0.0140321
0.0360758 0.0466843 0.0370852
0.0495006 -0.00271676 -0.0135125
0.0543235 0.0157291 -0.019409
0.0459887 0.0147415 -0.0388653
0.047735 0.0307037 -0.0305872
0.0492701 -0.00283636 -0.0130617
0.0540569 0.0127158 -0.0174507
0.0489346 -0.00275662 -0.0118429
0.0527532 0.00711773 -0.00942883
0.0538174 0.0282444 -0.0119855
0.0454593 0.00834724 -0.0369023
0.0529833 0.0156671 -0.0254303
0.0481832 -0.00290508 -0.0105442
0.0540502 0.0226878 -0.0254489
0.0488547 -0.000728173 -0.00598113
0.0565588 0.0475249 0.0270293
0.0480425 -0.00277696 -0.00958797
0.0476061 -0.00294569 -0.00894387
0.0443817 0.00283616 -0.0358621
0.041426 0.00472947 -0.0400195
0.0474999 -0.00284523 -0.00842777
0.0494186 0.00679329 -0.0289759
0.0463242 0.00290417 -0.0323641
0.0465755 -0.00300504 -0.00692894
0.0462237 -0.00290981 -0.00633816
0.0458975 0.00837173 -0.0364232
0.0458713 -0.0030519 -0.00514854
0.041426 0.0337465 -0.0363479
0.0460096 -0.00308157 -0.00300905
0.00643723 0.0123043 -0.0483837
0.0463226 -0.00308782 -0.00206689
0.0430389 0.0455216 -0.00485452
0.0626565 0.0480847 0.0415242
0.0255779 0.00120331 -0.0464978
0.0561376 0.0476278 0.0304332
0.046884 -0.00308626 -0.00119461
0.0417758 0.00866648 -0.0412422
0.0480723 0.00272043 -0.0269613
0.0268974 -0.00270775 -0.0459123
0.0695325 0.0475502 0.0276339
0.0636096 0.0474109 0.0311083
0.0359848 0.0127329 -0.0459725
0.0337416 0.0120329 -0.0475579
0.0548693 0.0295031 -0.0240636
0.0302021 -0.00264853 -0.0442885
0.00661929 0.0185983 -0.0483351
0.0310123 -0.0026312 -0.0440851
0.0464416 0.00439718 -0.0334608
0.0202058 0.0427479 -0.0384026
0.0310808 0.000156738 -0.0449664
0.0443692 0.013109 0.00404963
0.0475269 0.0531242 -0.00628094
0.00202292 0.0454115 -0.0544962
0.040885 0.0485753 0.0645149
0.0475798 -0.00143505 -0.00305594
0.0184783 0.0476647 0.0438054
0.049426 -0.00255611 -0.0173917
0.0416336 0.0372176 -2.18915e-05
0.0443599 0.0439819 -0.0331663
0.0493871 -0.00257055 -0.0164591
0.0207471 0.0172107 -0.0475984
0.0494049 -0.00258499 -0.0154283
0.0546831 0.0191742 -0.0230862
0.0494555 -0.00259077 -0.0149406
0.0495353 -0.00261676 -0.0130024
0.0449042 0.0477232 0.0351763
0.0494049 -0.00262543 -0.0126283
0.0549266 0.0177421 -0.0145644
0.0498176 0.0011735 -0.0033134
0.0568191 0.0464449 0.00211348
0.0130089 0.0452038 -0.051868
0.0488605 -0.0026572 -0.0113711
0.0514255 -0.000159481 -0.0139784
0.0445485 0.0150874 0.00306022
0.0537701 0.00921495 -0.0149876
0.0430052 0.00419946 -0.0375461
0.0483239 -0.00268897 -0.0101006
0.047873 -0.00271785 -0.00888146
0.0515382 0.0311403 -0.0245333
0.0513353 0.00683795 -0.0238847
0.0415212 0.00171962 -0.0384581
0.0396149 0.0277983 -0.042665
0.0459495 -0.00269981 -0.00551322
0.0615423 0.0472015 0.0200444
0.0510426 0.0157468 -0.0289584
0.0537732 0.027731 -0.0158621
0.0154497 0.046652 0.0323596
0.0457937 -0.00283338 -0.00448291
0.0283639 0.00432185 -0.0448722
0.0466536 0.0257467 -0.0365935
0.0461433 -0.0027677 -0.00307748
0.020889 0.0167998 -0.0469691
0.0519817 0.0192139 -0.0290318
0.0403127 0.00970406 -0.0427763
0.0465218 -0.00270533 -0.00246184
0.0277445 -0.00236773 -0.0451451
0.0419688 0.0152645 -0.042908
0.0448728 0.0277294 -0.0372781
0.0483824 0.00388502 -0.0289992
0.0280944 -0.00225205 -0.045019
0.0485053 0.0122181 -0.0334864
0.0385459 0.00921075 -0.0440365
0.0676116 0.0476034 0.0276067
0.0422185 0.0465844 -0.0126755
0.0300941 -0.0024326 -0.0444755
0.0304461 -0.00231703 -0.0444658
0.0271035 -5.84827e-05 -0.0458554
0.0509827 0.0027522 -0.0214953
0.0534227 0.0251867 -0.0275137
0.0455059 0.0463751 -0.00148152
0.0312104 -0.00241138 -0.044142
0.0518181 0.00644881 -0.00604838
0.0530291 0.00774384 -0.0205175
0.0485221 -0.000454419 -0.00450736
0.0385631 0.049661 0.0541932
0.0378217 0.0480755 -0.0382909
0.0510858 0.0127708 -0.0289836
0.0355089 0.0468582 0.0387033
0.0315456 -0.00226207 -0.0440947
0.0350992 0.0462074 -0.0480063
0.0549145 0.0483076 0.0155146
0.0320457 -0.00228986 -0.0438451
0.0502857 0.0455427 -0.0267025
0.0194346 0.0476273 0.0370616
0.0322299 -0.00239546 -0.0435761
0.0404457 0.00327384 -0.0404126
0.0326772 -0.00232031 -0.0431348
0.0456551 0.0151867 -0.0391564
0.0317591 0.0475067 0.0308083
-0.0130738 0.0482724 -0.0589445
0.025282 0.0458328 -0.0294103
0.0328514 -0.00228407 -0.0428996
0.0458385 0.0072249 -0.0358054
0.0336861 -0.00239634 -0.0409872
0.0443656 0.0205757 0.00554338
0.0339976 -0.00231663 -0.0400345
0.0245741 0.0307496 -0.0464365
0.0339234 0.0012463 -0.0443429
0.0476379 -0.00218969 -0.0220221
0.0478576 -0.00219131 -0.0215082
0.0645021 0.0472604 0.019521
0.0666987 0.0473398 0.0245256
0.050863 0.0252247 -0.0309027
0.0497269 -0.0022423 -0.0169704
0.0360514 0.00067024 -0.0415572
0.049649 -0.00236097 -0.0160054
0.0372028 0.0335938 -0.0423629
0.0499317 -0.00226897 -0.0145158
0.0468954 -0.00261033 -0.00197484
0.0214327 0.0483672 0.0429224
0.0499485 -0.00231782 -0.01342
0.0487938 -0.00245382 -0.0104866
0.0485899 -0.00246443 -0.0100398
0.0504971 0.0157404 -0.0299697
0.0544194 0.015214 -0.0199429
0.0489508 0.00116939 -0.00548147
0.0480617 -0.00249361 -0.00875471
0.0404462 0.00836713 -0.0423451
0.0476841 -0.00251219 -0.00800874
0.0438516 0.0205166 0.00405304
0.0471115 0.0364859 -0.00680046
0.0463012 -0.00256524 -0.00640393
0.0501374 0.0237214 -0.0325595
0.0236063 0.00311783 -0.0463127
0.049079 0.0350159 -0.0247927
0.046374 -0.00261033 -0.00287786
0.047458 0.0152047 -0.0368504
0.02248 0.0482634 0.0345365
0.0265905 -0.00216147 -0.0459439
0.0550405 0.0207607 -0.019467
0.0403224 0.0402409 -0.0359929
0.0288724 -0.00223842 -0.0447915
0.0380189 0.00316358 -0.0415494
0.0420397 0.0242958 0.00394821
0.0265149 0.0497444 -0.0354748
0.0522366 0.00215767 -0.0155635
0.041195 0.0362922 -0.0332483
0.0474842 -0.00211876 -0.022455
0.0341334 0.000572483 -0.0430793
0.0544535 0.0152456 -0.0180338
0.0492491 -0.00211997 -0.019298
0.0454642 0.0411537 -0.0299037
0.0499208 -0.00215744 -0.0150347
0.0252556 0.0492916 0.063344
0.0217608 0.0469354 -0.0407091
0.035662 0.0486623 0.0523684
0.0498553 -0.00219007 -0.0124481
0.0494941 -0.00220941 -0.0114737
0.0357031 0.0492369 0.0574396
0.048515 0.00925328 -0.0330362
0.0489335 0.0463772 0.00295532
0.0489151 0.00231631 -0.0239765
0.0526313 0.00724033 -0.0214398
0.0490117 -0.002236 -0.0101093
0.0487165 -0.00225534 -0.00902052
-0.00931995 0.0454007 -0.0485426
0.0482054 -0.00227468 -0.00830576
0.0426051 0.0461298 -0.0400058
0.0498876 0.0192372 -0.0329923
0.00297045 0.0458376 -0.052055
0.0480062 -0.00228435 -0.00785079
0.0461829 -0.00234478 -0.00600882
0.0515652 0.00128792 -0.0180065
0.0458903 -0.00224787 -0.00501557
0.0460634 -0.00225653 -0.00396596
0.0534239 0.0302116 -0.0194671
0.0462433 -0.00229598 -0.00357085
0.0464878 -0.00223557 -0.00304078
0.0630016 0.0473631 0.0305219
0.0469298 -0.00219878 -0.00246517
0.052196 0.00112347 -0.0129271
0.0355618 0.00316436 -0.0439052
0.0576571 0.047631 0.0424651
0.0471043 -0.00231609 -0.00201303
0.0485353 0.00228153 -0.0249743
0.029088 -0.0017417 -0.0450682
0.0306905 -0.00198763 -0.0446425
0.0310925 -0.00172382 -0.0446261
0.0320136 -0.0017566 -0.0440509
0.0513736 0.00136545 -0.0188183
0.0284378 0.0481839 -0.0337442
0.032321 -0.00175365 -0.0438184
0.0475735 0.00222286 -0.0280403
0.0488249 0.0351567 -0.0274327
0.0465067 0.0322533 -0.0315281
0.0519379 0.01022 -0.025441
0.0507484 -0.00152608 -0.0137012
0.0609562 0.0482417 0.0485792
0.0329333 -0.00172118 -0.0429865
0.053852 0.012725 -0.0116589
0.0502744 -0.000712794 -0.00752222
0.0541842 0.0141492 -0.0174503
0.0510767 -0.0012118 -0.0130326
0.0241927 0.037253 -0.045447
0.0172985 0.0342192 -0.0478381
0.0358901 0.0472195 -0.0428865
0.0487061 0.0348102 -0.0264386
0.0335227 -0.00175091 -0.0420259
0.0681615 0.0475311 0.0314591
0.0477071 0.0219029 -0.0361688
0.0338785 -0.00170863 -0.0414007
0.0247343 0.0518987 -0.036559
0.0410898 0.0251967 -0.0424526
0.0260966 0.00112465 -0.0463327
0.0340395 -0.00178218 -0.0410419
0.0438903 0.048881 0.0592203
0.0474842 -0.00180922 -0.022455
0.053054 0.00321607 -0.0145079
0.0476696 -0.0018097 -0.0220839
0.0400686 0.00195422 -0.0400991
0.0479584 -0.00181019 -0.0215337
0.0429274 0.0436555 -0.00384751
0.0537227 0.0162277 -0.00849957
0.0480921 -0.00177715 -0.0211687
0.0519823 0.0177092 -0.0279891
0.0500371 -0.00183512 -0.0175332
0.0595336 0.0470386 0.0290652
0.0376355 0.0473231 0.0233866
0.0501473 -0.0018284 -0.0159922
0.0508393 0.0468963 0.00355618
0.038548 0.00732683 -0.0438329
0.0423211 0.0483238 0.0535023
0.0501317 -0.00186863 -0.0155026
0.0419342 0.00926457 -0.0413678
0.0502745 -0.00195054 -0.0141219
0.0489974 0.0317183 -0.0275341
0.036152 0.0016604 -0.0425829
0.048772 0.00216634 -0.0241245
0.0552531 0.0239363 -0.0172988
0.0502493 -0.00196582 -0.0127657
0.0472371 0.000150251 -0.0244829
0.0501219 -0.00187017 -0.0119863
0.0499543 -0.00187733 -0.0115766
0.0349943 0.0456934 -0.0450214
0.0429168 0.0366191 -0.0354659
0.0516529 0.0152816 -0.0280489
0.053055 0.0217695 -0.00900602
0.0542177 0.0222371 -0.0249922
0.0734584 0.0473082 0.0175765
0.0200974 0.0456529 -0.0369904
0.0407997 0.0355519 -0.0355329
0.0495732 -0.00189603 -0.0104366
0.0511873 0.0331646 -0.0200077
0.0754818 0.0477951 0.0234883
0.049502 -0.00190216 -0.00996012
0.0501673 0.00553876 -0.0250076
0.0522984 0.0207499 -0.0288164
0.0505302 0.0127547 -0.0304542
0.0415728 0.0117445 -0.0423938
0.0388605 0.0484865 0.0605084
0.0495869 -0.00190428 -0.00961288
0.0424497 0.0262138 -0.0409249
0.052075 0.0451161 -0.0208034
0.0455317 0.00318546 -0.0344869
0.0489362 -0.00203563 -0.00863998
0.0472035 0.000149905 -0.0249412
0.0246073 0.0492402 -0.0379789
0.0463713 -0.00214036 -0.00348262
0.0534048 0.0087042 -0.0184668
0.0474284 -0.00213818 -0.00185166
0.0280448 -0.00181204 -0.0452249
0.0533662 0.0232446 -0.0273672
0.0537751 0.025378 -0.0140589
0.0529911 0.0172602 -0.0259367
0.0285544 -0.00180425 -0.0451423
0.0305143 -0.00163075 -0.044881
0.0363695 0.000359872 -0.0408062
0.0429467 0.0243121 0.0045859
0.0405672 0.0455937 -0.00846897
0.0335735 0.0480783 0.049051
0.0315884 0.0476456 0.0285795
0.0541718 0.0117196 -0.0195383
0.0250534 0.0457692 -0.0380062
0.0431354 0.0362475 -0.0358873
0.0344299 -0.00160992 -0.0404322
0.0483198 -0.00170693 -0.0209077
0.066683 0.0477359 0.0344983
0.0489394 -0.00170693 -0.0198346
0.045759 0.00212336 -0.0327431
0.0438253 0.0320211 -0.0348924
0.0243879 0.0366764 -0.0451589
0.0459391 0.0161858 -0.0388311
0.0503081 -0.0017264 -0.0154639
0.0483874 0.0471386 0.0182094
0.0503951 -0.00173321 -0.014613
0.0447589 0.0202168 0.00632469
0.0274651 0.00546926 -0.0446291
0.0551597 0.0197502 -0.0225607
0.0548555 0.0236271 -0.0214875
0.0499747 -0.00179257 -0.00924136
0.0460439 -0.00178654 -0.00484967
0.0461654 -0.00182991 -0.00410577
0.051729 0.00703482 -0.0232027
0.0542074 0.0262332 -0.02099
0.0465815 -0.00179031 -0.00351841
0.0470478 -0.00174949 -0.00297754
0.0532221 0.00957869 -0.0220166
0.0422478 0.0222357 -0.0422247
0.0472335 -0.00190351 -0.00258908
0.0331309 0.0296743 -0.0465356
0.0487918 0.0367589 -0.0264901
0.0514844 0.0286927 -0.026982
0.0475694 -0.00174534 -0.00254081
0.0476919 -0.0019006 -0.0020951
0.0537322 0.0141471 -0.0235332
0.0291762 0.047381 0.0289347
0.0497967 0.00335748 -0.0233496
0.027835 -0.00159451 -0.0453884
0.000434723 0.0307998 -0.049247
0.0396144 0.045185 -0.0085859
0.0318047 -0.0015449 -0.0443127
0.0494897 0.0462555 0.00191875
0.0512762 -0.000477966 -0.011987
0.01319 0.0475596 0.0426458
0.0497313 0.045993 0.000737181
0.0456555 0.00607538 -0.0357224
0.049303 0.0291416 -0.0304047
0.047425 0.0502303 -0.00545757
0.0675173 0.0483498 0.0365434
0.0423657 0.0462422 0.0059795
0.0333652 -0.00153806 -0.0424098
0.0479563 0.0187164 -0.0359372
0.0343178 -0.00153806 -0.0407598
0.049517 0.0157569 -0.0324786
0.0504616 0.0112101 -0.0304978
0.010072 0.0450782 -0.0545548
0.0208955 0.0186435 -0.046458
0.0476244 -0.00129082 -0.0225454
0.0558866 0.0476278 0.0299984
0.0547792 0.0175713 -0.0150196
0.0548447 0.0230864 -0.0126062
0.0536124 0.0301816 -0.0209406
-0.00878623 0.0453152 -0.0512182
0.0207013 0.051611 -0.0437442
0.0485715 0.0352346 -0.0279716
0.0482165 -0.00150042 -0.0210865
0.0484386 -0.00123302 -0.0209877
0.0408838 0.0286778 -0.0418272
0.050584 -0.0013538 -0.015936
0.048654 -0.00136077 -0.0205954
0.05484 0.0237968 -0.0162144
0.0490699 -0.00129111 -0.0200085
0.0491765 -0.00149871 -0.0196238
0.047201 0.0196886 -0.0370454
0.0454777 0.0478611 0.0354696
0.0537763 0.0153212 -0.0236567
0.0502595 -0.00149871 -0.017748
0.0114391 0.0533055 -0.0613869
0.0537403 0.0277192 -0.0121858
0.0540252 0.0122111 -0.00802568
0.0505171 -0.00126172 -0.0175018
0.0505601 -0.00140923 -0.0155274
0.0200066 0.0475937 0.0378524
0.0534348 0.0301261 -0.0184483
0.050008 0.0342034 -0.0219836
0.00989089 0.0157103 -0.0484685
0.054218 0.014624 -0.0220917
0.0506982 -0.00139446 -0.0145081
0.0504386 -0.00154661 -0.0118377
0.0528585 0.0117705 -0.0238465
0.0503105 -0.00155174 -0.0114597
0.0375492 0.0142655 -0.0460629
0.0499603 -0.00156885 -0.0100663
0.050423 -0.00157056 -0.00906485
0.0674976 0.04823 0.0215093
0.052686 0.00161859 -0.0110119
0.050377 -0.00157398 -0.00874447
0.0469066 -0.0016715 -0.00335535
0.0324684 0.0478081 0.030437
0.0488119 0.0152189 -0.0343555
0.0474032 -0.00166808 -0.00289528
0.038028 0.0157575 -0.0459335
0.0480929 0.0111922 -0.0334673
0.0502277 0.00824706 -0.028546
0.0563557 0.0478604 0.0476109
0.0479933 -0.0016638 -0.00237325
0.0472888 0.00155181 -0.0276934
0.0484671 -0.00165953 -0.00205252
0.0536499 0.00966861 -0.0164757
0.00407348 0.0547383 -0.0579445
0.0429738 0.0112082 -0.0410421
0.0310769 0.0487739 0.0542268
0.05407 0.0097144 -0.00750808
0.0448952 0.00231288 -0.0348391
0.0305491 0.0466753 0.0140459
0.0417931 0.0475058 0.0131877
0.0274744 -0.00126877 -0.045513
0.0280354 -0.00126271 -0.0454412
0.0294595 0.0472717 0.0356253
0.0422189 0.0476142 0.0138252
0.0300694 -0.00124099 -0.0451182
0.0310347 -0.00123143 -0.0448463
0.0314963 -0.00122798 -0.0445467
0.0258983 0.0478077 0.0324571
0.0318047 -0.00122594 -0.0443127
0.0387463 0.0487893 0.0695105
0.0423376 0.00224079 -0.0372691
0.0321124 -0.0012239 -0.0440796
0.0323704 -0.0012226 -0.0438329
0.0488582 0.0356314 -0.0263751
0.0537066 0.00951237 -0.00637749
0.0420873 0.0313143 -0.0380626
0.044628 0.0353312 -0.0349687
0.0376461 0.00473351 -0.0429951
0.0489126 0.00278714 -0.024481
0.0536834 0.0167106 -0.00901762
0.0326033 -0.00122156 -0.0435795
0.0459137 0.0377058 -0.0060751
0.00938393 0.0558822 -0.0580466
0.0538815 0.0143081 -0.0233412
0.032836 -0.00122051 -0.0433265
0.0513677 0.0422156 -0.0230785
0.0443068 0.0468585 0.0271415
0.0330477 -0.00122051 -0.0429598
0.0266912 0.000383564 -0.0459695
0.0332594 -0.00132636 -0.0425931
0.0334841 -0.001198 -0.0424038
0.0109358 0.0541949 -0.0609919
0.0620773 0.0485717 0.046971
0.01914 0.0202083 -0.0480486
0.0219051 0.0470376 0.0265407
0.0340402 -0.00121853 -0.0415407
0.0490578 0.00104803 -0.00702944
0.034454 -0.00121717 -0.0410239
0.0355946 -0.000473965 -0.0406483
0.0520147 0.00168604 -0.0160079
0.0346168 -0.00132341 -0.0406419
0.0475059 -0.00115226 -0.0229174
0.0537612 0.028823 -0.0133495
0.0415486 0.0122094 -0.0424107
0.0434508 0.0325345 -0.0349411
0.0368847 0.00270745 -0.0423638
0.0526958 0.0156671 -0.0259283
0.0380971 0.0485304 0.064986
0.0459797 0.0482387 0.0661392
0.0258449 0.0476011 0.0243647
0.0545152 0.0177242 -0.0214768
0.053634 0.0302042 -0.0164632
0.0454175 0.0472653 0.0310654
0.048919 -0.00115276 -0.0204031
0.0512995 -0.000788246 -0.0133467
0.0622329 0.0478738 0.0263905
0.0528817 0.00891729 -0.0228063
0.0506211 0.0371681 -0.022055
0.0502175 -0.00134702 -0.0104207
0.0438812 0.0338455 0.00320454
0.0533354 0.0281063 -0.0238203
-0.0138225 0.0449562 -0.0489414
-0.00755033 0.0458822 -0.0550776
0.0501998 -0.00124359 -0.00985141
0.0464461 0.00371047 -0.0324529
0.0504077 -0.00120813 -0.00942462
0.0468919 0.0310947 -0.0318809
0.0506119 -0.00124396 -0.00908761
0.0506495 -0.00121069 -0.0086057
0.0454794 0.00977869 -0.0379275
0.0197501 0.0476942 0.0400082
0.0509841 0.0477501 0.053007
0.0571621 0.0472184 7.67868e-06
0.0524728 0.00130766 -0.0109645
0.0486204 0.0277956 -0.0330538
0.0419166 0.0460627 -0.00649827
0.0462932 -0.00143996 -0.0046178
0.0470841 -0.001438 -0.00351459
0.0480288 -0.00131566 -0.00301171
0.0292543 -0.0011407 -0.04533
0.0497457 0.0192372 -0.0332379
0.0423872 0.0436757 -0.0134498
0.0534628 0.0181043 -0.00699979
0.0537544 0.0128946 -0.00949458
0.0541249 0.0142508 -0.017053
0.0206489 0.0456529 -0.036035
0.0435022 0.0472639 0.032548
0.0338775 -0.00111218 -0.0419224
0.0470904 -0.000155786 -0.0255869
-0.0151862 0.0476915 -0.0619033
0.0345573 0.00119281 -0.043465
0.03481 -0.0011097 -0.0407073
0.0484449 0.0474602 0.022109
0.0527722 0.00604247 -0.00999585
0.0543067 0.0176865 -0.0185381
0.00988263 0.0562335 -0.0589828
-0.000327009 0.0452653 -0.0540664
0.0458072 0.0309778 -0.0338597
0.0472699 -0.000300368 -0.0240461
0.0465493 0.0465947 0.00702574
0.0520652 0.00441878 -0.00882041
0.0472691 0.0479396 0.0520725
0.0508443 -0.00108986 -0.016135
0.0532176 0.020296 -0.0266244
0.0517095 0.0142291 -0.0281865
0.0424058 0.00278587 -0.0373509
0.0219192 0.0469855 -0.0412348
0.0542514 0.0127462 -0.0200837
0.0508239 -0.0010942 -0.0154705
0.061542 0.0474278 0.0355939
-0.0202082 0.044375 -0.0472017
0.0351236 0.0480221 0.0496358
0.0564014 0.0491811 0.0190902
0.0509221 -0.00109916 -0.0145003
0.0544591 0.0464882 -7.40755e-05
0.0418764 0.00769612 -0.0408679
0.0433734 0.00468364 -0.0372751
0.0508077 -0.00111838 -0.0115985
0.0408946 0.0306205 -0.0403685
0.0507244 0.0339149 -0.0183428
0.0503011 -0.00113326 -0.0100759
0.0504816 0.0371889 -0.0229634
0.0467915 -0.00120393 -0.00475473
0.0102339 0.0455479 -0.0505744
0.0470582 -0.00120517 -0.00409287
0.0183612 0.0101689 -0.0460974
0.0534569 0.0172348 -0.0250099
0.0265536 -0.000870359 -0.0460078
0.0268017 -0.000832581 -0.045778
0.0529018 0.0177444 -0.026438
0.0524307 0.0290752 -0.00858731
0.0271132 -0.00094113 -0.0456385
-0.015363 0.0448661 -0.0504096
0.0543493 0.0119304 -0.00726417
0.0275748 -0.000827763 -0.0455392
0.035753 0.014627 -0.047274
0.0294177 0.0483969 0.054953
0.0414819 0.0462832 -0.0417513
0.0480174 -0.000754566 -0.0219914
0.0287456 -0.000928073 -0.0454112
0.0427979 0.0399945 0.000328176
0.0305718 -0.000913509 -0.045148
0.0538447 0.0125742 -0.00943824
0.0391449 0.0282527 -0.042899
0.0470672 0.0482038 0.0394561
0.0249976 0.00158291 -0.0465029
0.0518941 0.0137928 -0.0274596
0.00907906 0.0140926 -0.0475746
0.0315944 -0.000836435 -0.0446103
0.0461888 0.0242431 -0.037532
-0.00198146 0.0457792 -0.048832
0.0319343 -0.00076386 -0.0444214
0.0448358 0.0467735 0.00165794
0.0450591 0.0477985 0.0220448
0.0423937 0.0132319 -0.0418719
0.0321772 -0.000833992 -0.0441341
0.0471551 0.0316974 -0.0305749
0.050647 0.0112185 -0.0300545
0.0324831 -0.000761909 -0.0439376
0.0329318 -0.000760727 -0.0434271
0.0557592 0.0480741 0.0194779
0.0331639 -0.000817066 -0.0430385
0.0479901 -0.000969253 -0.00387873
0.0489426 0.0482496 0.064571
0.0336096 -0.000794956 -0.0424865
0.0341859 -0.000899949 -0.0415882
0.0185156 0.0102544 -0.04413
0.0345065 -0.000771675 -0.0414329
0.0168141 0.0458146 -0.041377
0.0543615 0.0230147 -0.0239432
0.0478867 0.0463427 0.00894214
0.0446892 0.00761127 -0.0371293
0.0347444 -0.000792295 -0.0411209
0.0539705 0.0156569 -0.00858701
0.0517097 0.00412094 -0.0216361
0.0349652 -0.000756568 -0.0409051
0.0537231 0.02726 -0.0120822
0.0350557 -0.000896936 -0.0406819
0.0512737 0.025825 -0.0301914
0.00592801 0.0559519 -0.0573324
0.0472462 -0.000738103 -0.0239671
0.047552 -0.000774311 -0.0229874
0.0658084 0.0473238 0.0403836
0.0477086 -0.000795729 -0.0225262
0.0343477 0.0487172 0.0539921
0.0488836 0.00739675 -0.0314511
0.0481705 -0.000809918 -0.0216329
0.0442061 0.0262173 -0.0390828
0.00850059 0.0178334 -0.0480766
0.048428 0.00180541 -0.0244802
0.0438248 0.0247836 0.00590682
0.0440583 0.0206986 0.00501127
0.0122766 0.0478486 0.0406637
0.0487751 -0.000877852 -0.0207191
0.0494912 -0.000752533 -0.0199187
0.0253839 0.0492962 0.0593663
0.0399611 0.0480269 0.0200147
0.0500597 -0.000772789 -0.018994
0.0506117 -0.000752178 -0.018058
0.0506568 -0.000876848 -0.0176599
0.0365568 0.0483345 0.0469182
0.044671 0.0116559 -0.0396277
0.0512735 -0.000895932 -0.0127917
0.0435777 0.0466398 -5.45905e-05
0.047208 0.047357 0.0280666
0.0299855 0.0479182 0.0251365
0.0507087 -0.000909993 -0.01097
0.0506357 -0.00080598 -0.0104965
0.0505991 -0.000832539 -0.00943977
0.0351611 0.0266295 -0.0460993
0.0404876 0.047477 0.0249266
0.050472 -0.000818276 -0.00798003
0.0481605 -0.000969253 -0.00358354
0.0293796 0.0473944 0.0228869
0.0088969 0.0558478 -0.0553901
0.0301844 0.0470356 0.0192809
0.0481666 0.0388953 -0.0251731
0.0526484 0.00807961 -0.00451027
0.05294 0.0196345 -0.00750524
0.0564613 0.0495611 0.0233939
0.0521804 0.0319439 -0.0165209
0.0487275 -0.00096624 -0.00320146
0.0313863 -0.000695109 -0.0448373
0.0426267 0.00173911 -0.0370685
0.0276811 0.00265707 -0.0450549
0.0461495 0.00414365 -0.0335468
0.0216828 0.0510047 -0.0416443
0.0354018 -0.000684729 -0.0405823
0.0400616 0.0215611 -0.0441112
0.0202392 0.047861 0.0418554
0.0457333 0.0471707 0.0298124
0.0483444 0.0128719 -0.0348651
0.0471093 -0.000668966 -0.0244044
0.0389809 0.0458581 -0.036433
0.034277 0.0488072 0.0677695
0.0494925 -0.000735349 -0.00300992
0.0518654 0.00677498 -0.0228998
0.0498174 -0.000734324 -0.00271374
-0.0139529 0.0448486 -0.0480672
0.0710983 0.0463831 0.0124125
0.0471562 0.0356855 -0.0292231
0.0265503 -0.000427476 -0.0460802
0.0539653 0.0121737 -0.0119793
0.0272137 -0.000499304 -0.0456645
0.0311178 -0.000312386 -0.0450624
0.029566 0.0471952 0.0389099
0.021888 0.0480007 0.0320112
0.0315188 -0.000268961 -0.0448745
0.0443901 0.0161604 0.00568598
0.0544834 0.0127017 -0.015032
0.0538773 0.027238 -0.0205318
0.0235482 0.0256843 -0.0474134
0.043341 0.0459371 -0.0115312
0.0321215 -0.00032097 -0.044564
0.0553521 0.0212395 -0.0209275
0.0536702 0.00921525 -0.0159071
0.0395659 0.00821362 -0.0429698
0.0326613 -0.000320123 -0.044079
0.0502546 0.00863277 -0.0290564
0.0332365 -0.000477966 -0.0432328
0.0476912 0.0326605 -0.0284964
0.0360652 -0.000237876 -0.0404582
0.0536392 0.0272036 -0.0130275
0.0543502 0.0172303 -0.0190627
0.046193 -0.000280847 -0.0284913
0.0539861 0.0101821 -0.00852191
0.0475923 0.0421494 -0.00456761
0.0474479 -0.000259685 -0.0235289
-0.0141459 0.0457146 -0.0599014
0.0266978 0.0505983 -0.0345581
0.0449335 0.000768795 -0.032973
0.0539074 0.0271483 -0.0200297
0.0534484 0.00373135 -0.0120247
0.0395073 0.0471068 0.0110287
0.0480942 -0.000286019 -0.0220234
0.0432768 0.0475745 0.0387575
0.00959242 0.0141876 -0.0471855
0.0449027 0.0487423 0.0585738
0.0485117 -0.000234386 -0.0215002
0.0533485 0.0219117 -0.0267976
0.0196053 0.0478216 0.0425574
0.00202763 0.0580467 -0.058088
0.0486939 -0.000362761 -0.0211596
0.0492638 0.0383775 -0.0246725
0.00720794 0.013192 -0.0481155
0.0490264 -0.000213972 -0.0209726
0.0537331 0.0287032 -0.0149316
0.0546826 0.0140841 -0.00868699
0.0491777 -0.00046463 -0.0206218
0.0208265 0.0195977 -0.0463274
0.0412463 0.0152835 -0.0436927
0.0500374 -0.000288365 -0.0195327
0.0218282 0.0475279 0.0292075
0.0389305 0.0473635 0.0251296
0.0514588 0.0137107 -0.0285375
0.0501925 -0.000395708 -0.0191308
0.016805 0.0455125 -0.0523928
0.0226802 0.0397264 -0.0425167
0.0428732 0.0147115 -0.0418414
0.0504547 -0.000190756 -0.0189432
0.0512086 -0.00036227 -0.0170541
0.0336363 0.000154489 -0.0431403
0.049627 0.00126622 -0.0215434
0.0665942 0.0472821 0.0160445
0.0474668 0.000798056 -0.0255051
0.0389403 0.0101827 -0.0437535
0.0512334 -0.000465964 -0.0165611
0.0512394 -0.000467297 -0.0160508
0.0512464 -0.000468631 -0.0155385
0.053194 0.00715463 -0.0103654
0.052395 0.0134161 -0.0258492
0.0442614 0.00251298 -0.0357371
0.0102407 0.0167435 -0.0475626
0.0513249 0.00569905 -0.00660262
0.051215 -0.000470231 -0.0149931
0.0541894 0.00817885 -0.0134912
0.0512245 -0.000471565 -0.0144765
0.0410116 0.0155826 -0.0440158
0.0247351 0.0474604 0.0250425
0.0345407 0.00168638 -0.0440938
0.072767 0.0465433 0.0259361
0.0512353 -0.000472898 -0.0139579
0.021739 0.0479879 0.039253
0.0450284 0.0482169 -0.0100484
0.0515018 -0.000264257 -0.0135105
0.0507423 0.0298785 -0.0281118
0.0559711 0.0474301 0.0270447
0.0515402 -0.000264911 -0.0130097
0.0533872 0.00377976 -0.0114807
0.0511004 -0.000227116 -0.0105315
0.0425782 0.0446855 -0.00355248
0.0507785 -0.000486501 -0.00964911
0.0537577 0.00876689 -0.0105888
0.0203554 0.0500707 -0.0429435
0.00379043 0.0458628 -0.0530348
0.047215 0.0110123 -0.0362212
0.0509116 -0.000271878 -0.00948524
0.0566891 0.0475301 0.0427885
0.0507621 -0.000488102 -0.00907738
0.0370423 0.0472922 0.0250592
0.0438714 0.0466908 0.00245424
0.0505622 -0.000273828 -0.00862364
0.0405503 0.0207885 -0.0435647
0.050472 0.00522767 -0.02398
0.0404824 0.0306718 -0.0409824
0.0491605 -0.000503038 -0.00625154
0.0542267 0.0237226 -0.00703653
0.00954064 0.0147267 -0.0480751
0.0495241 -0.000284393 -0.00348837
0.0318899 -0.0001622 -0.0447651
0.0534895 0.00980895 -0.0205134
0.0542027 0.019166 -0.0237182
0.0333651 -0.000126131 -0.0433433
0.0436594 -0.000253269 -0.0343797
0.0542151 0.0167124 -0.0214968
0.00603877 0.0133826 -0.0498405
0.0442695 -0.000253567 -0.033123
0.0524459 0.00719568 -0.00799436
0.0460371 -0.000174487 -0.0290214
0.0464144 -0.000154631 -0.0280079
0.0519168 0.0181798 -0.0290026
0.0755115 0.0479767 0.0221897
0.0630099 0.0472294 0.021003
0.0380509 0.0107302 -0.0444939
0.0513615 -0.000177879 -0.0164793
0.0236346 0.048025 0.0315363
0.0509941 0.0489359 0.0637243
0.0119848 0.0460169 -0.0585418
0.0528282 0.00182545 -0.0109989
0.0435728 0.0402185 -0.0063964
0.0342435 0.0475166 0.0199115
0.0483789 0.0012369 -0.0230721
0.051335 0.0311825 -0.0252852
0.0428282 0.0336876 -0.0342195
0.047288 0.046875 -0.0262947
0.0493471 0.00679174 -0.0294083
0.0514223 -0.000157754 -0.015934
0.0432968 0.0474376 0.0351922
0.0516313 0.0157435 -0.027972
0.047332 0.0507437 -0.00581863
0.0536271 0.0177681 -0.0100651
0.0459971 0.0492375 0.0614694
0.0594802 0.0483295 0.0440228
0.0495187 0.00474824 -0.0254977
0.0514255 -0.000123735 -0.0154618
0.0514256 -0.000158505 -0.0150282
0.0340861 0.0474695 0.0346389
0.0367921 0.0474376 0.0239257
0.0506307 0.0277278 -0.030155
0.0436265 0.0348174 -0.0312367
0.0496237 -0.000168657 -0.00694933
0.0493516 -0.000169558 -0.00642055
0.0487729 -0.000283363 -0.00532285
0.0487327 -0.000283959 -0.00499248
0.0489374 -0.00017205 -0.00443788
0.0524195 0.0476537 -0.00360674
0.0449738 0.046825 0.0254969
0.049406 -0.00017187 -0.00382639
0.074953 0.0474265 0.0214224
0.0472457 0.00569672 -0.0340681
0.0119852 0.056299 -0.0569743
0.0182076 0.0456476 -0.0391635
0.0490705 0.00273639 -0.0240073
0.0528207 0.00456024 -0.0103119
0.0257431 -5.89825e-05 -0.0466116
0.0535214 0.00417636 -0.0119983
0.0543541 0.0207068 -0.024856
0.0449002 -5.30468e-05 -0.0324306
0.0450502 -5.30468e-05 -0.0321708
0.0458727 -5.31718e-05 -0.0303462
0.0173196 0.0458365 -0.0404017
0.0495312 0.00724387 -0.0289761
0.0358649 0.000360689 -0.0412802
0.0370432 0.00216737 -0.0420394
0.0458904 -5.32655e-05 -0.0300155
-0.0108654 0.0453098 -0.0556195
0.0524379 0.00723671 -0.00697493
-0.0101475 0.0449607 -0.0523759
0.0463503 -5.35466e-05 -0.028319
0.020652 0.0191323 -0.0466296
0.0543049 0.024181 -0.00694115
0.0242142 0.047629 0.0285403
0.0473653 -5.43589e-05 -0.0239608
0.0508055 -5.42339e-05 -0.0184022
0.0513714 -5.43901e-05 -0.0169222
0.0323622 0.0482001 0.0494529
0.0257431 0.00027446 -0.0466116
0.0446602 0.0148232 0.00295382
0.0416515 0.00224608 -0.0380576
0.0486843 0.0116703 -0.0324764
0.0260564 0.000273878 -0.0464691
0.0563744 0.0474278 0.0266433
0.0551547 0.022695 -0.0164693
0.0432122 0.00365623 -0.0371542
0.0270532 0.000272337 -0.0458425
0.0740874 0.0475731 0.0294564
0.0447094 0.0477834 0.0365391
0.0413759 0.0143246 -0.0433349
0.054254 0.0212764 -0.0118294
0.0520229 0.00871162 -0.0244937
0.0525268 0.00170248 -0.0134209
0.0274444 0.000271654 -0.0456148
0.0509226 0.0127267 -0.0295245
0.0669473 0.0471059 0.040356
0.0535339 0.0479796 0.0321234
0.0279717 0.000307219 -0.0453516
0.0535362 0.0191533 -0.00993933
0.0438007 0.045952 -0.0087349
0.0306789 0.00026437 -0.0449625
0.0306118 0.0471244 0.0167212
0.0437322 0.0470374 0.0085464
0.0540704 0.0107469 -0.0164807
0.0546949 0.0206985 -0.0174156
0.0322933 0.000155181 -0.0446663
0.0422156 0.0318557 -0.037147
0.042024 0.0487836 0.0134877
0.0536349 0.00911705 -0.0080016
0.032564 0.000225223 -0.0445309
0.0530563 0.0467411 -0.00105371
0.0496681 0.00113614 -0.00357226
0.0514244 0.00126588 -0.0184803
0.0541214 0.0246883 -0.0240091
0.0538526 0.0277049 -0.0175246
0.0538845 0.0172667 -0.0234694
0.0330501 0.000238625 -0.0440756
0.0490479 0.0147575 -0.0335464
0.0531678 0.00825039 -0.0200108
0.0334915 0.000259359 -0.0435243
0.0320189 0.048505 0.0745582
0.0485619 0.0271968 -0.0334883
0.0222229 0.0481825 0.0354912
0.0678642 0.047814 0.0275443
0.0191677 0.00819573 -0.0464007
0.0339388 0.000280019 -0.0429763
0.0430394 0.0220491 0.00499654
0.0380317 0.0322571 -0.0419672
0.0474661 0.0472024 0.0265137
0.0344846 0.000293417 -0.0424042
0.0349608 0.000292815 -0.0419128
0.0640611 0.0471429 0.0209572
0.0534113 0.00877752 -0.00742217
0.0492587 0.00117171 -0.0045815
0.0355003 0.000292018 -0.041445
0.0362288 0.000152759 -0.04065
0.0332008 0.0486287 0.0689055
-0.0160199 0.0445818 -0.0514473
0.0436201 0.0467203 0.0284189
0.0443692 0.0127431 0.00404963
0.0396161 0.0326611 -0.0405029
0.0367844 0.000152413 -0.0400876
0.0534641 0.00620241 -0.0159976
0.0352718 0.0487701 0.0712925
0.0299228 0.0467899 0.0160278
0.040279 0.0387814 -0.0366347
0.0440851 0.000266586 -0.0339624
0.0539762 0.0112387 -0.0105105
-0.00306784 0.0462866 -0.0481137
0.0479432 0.0470387 -0.02456
0.0442172 0.000213518 -0.0336136
0.0444139 0.000280023 -0.0333395
0.0515108 0.0463015 -0.00193074
0.0506292 0.0477472 0.0219923
0.0451898 0.000146704 -0.0321289
0.0459272 0.0478326 0.0417482
0.0459169 0.000247216 -0.0303695
0.0548237 0.021226 -0.0145426
0.0426643 0.0161621 -0.04217
0.0273871 0.00421688 -0.0463641
0.0523906 0.00674225 -0.0219901
0.0473913 0.00322626 -0.0308491
0.0527698 0.0130792 -0.0246001
0.00993274 0.0562768 -0.0594627
0.0460354 0.000267494 -0.0300244
0.0469772 0.00319504 -0.031483
0.0485398 0.000705912 -0.0220408
0.0460645 0.000228066 -0.0294939
0.0461728 0.000248524 -0.0290265
0.0532166 0.0212642 -0.00942626
0.0462405 0.000215336 -0.0286424
0.0285605 0.000670226 -0.0449984
0.0537457 0.0257984 -0.0143597
0.0547465 0.0222384 -0.0153763
0.0145023 0.0453427 -0.0514813
0.0491064 0.0151902 -0.0334785
0.0463458 0.000282663 -0.0283934
0.0501567 0.0146954 -0.031526
0.0367075 0.0246675 -0.0457208
0.0538552 0.0248982 -0.00862018
0.0516205 0.0482729 0.0350093
0.0466381 0.000249553 -0.0275539
0.0371142 0.0480814 0.0213836
0.0550735 0.014426 -0.00890994
0.0467823 0.000249747 -0.0271706
0.0471281 0.000270835 -0.0260116
0.0385356 0.048109 0.0425457
0.0472629 0.00015051 -0.0241383
0.048655 0.0392531 -0.0245271
0.0474773 0.0470725 0.0254997
0.0434688 0.00826857 -0.0394098
0.0350019 0.000694549 -0.0424549
0.047523 0.000232643 -0.0235278
0.00320133 0.0544592 -0.0600551
0.0475748 0.000760816 -0.0245313
0.0124061 0.047561 0.0390881
0.0509565 0.0317533 -0.0255073
0.0537951 0.00770705 -0.0156242
0.0476997 0.000253321 -0.0230817
0.0349143 0.00139638 -0.0434265
0.0724744 0.0472427 0.0295294
0.0200921 0.0112845 -0.0464996
0.0496544 0.0337729 -0.0234961
0.0480588 0.000253321 -0.0224596
0.0390197 0.0257445 -0.0436159
0.0509271 0.0375306 -0.0210918
0.0484457 0.000273617 -0.0219296
0.0524555 0.0320152 -0.0145443
0.0496617 0.000200973 -0.0205834
0.0685409 0.0479317 0.0400163
0.0541371 0.0262472 -0.0215117
0.0507846 0.000149991 -0.0186385
0.0514079 0.000252159 -0.0174589
0.0428417 0.0489553 0.057804
0.0515991 0.000273582 -0.0165077
0.0675773 0.0477452 0.0241474
0.0516256 0.000219418 -0.0160485
0.0484511 0.0473476 0.0264199
0.035264 0.0494449 0.0596791
0.051675 0.000275701 -0.0150162
0.0319562 0.0476035 0.0135497
0.0517276 0.000222242 -0.0136051
0.0360486 0.00271291 -0.0434621
0.0409005 0.0484508 0.0620418
0.0197316 0.045271 -0.0371238
0.0516682 0.000154489 -0.0119079
0.0476515 0.0349521 -0.00926526
0.044955 0.0166361 0.00646429
0.0529721 0.00226871 -0.011483
0.0531191 0.0111861 -0.0234395
0.0515876 0.000225821 -0.0109809
0.0367602 0.0113221 -0.0453294
0.0516258 0.00658716 -0.00451482
0.042984 0.0247955 0.00455047
0.0542172 0.0262312 -0.0109931
0.0515835 0.000297104 -0.0105215
0.0377483 0.0200444 -0.045618
0.0513726 0.00026312 -0.01002
0.0381062 0.0266839 -0.0438982
0.0535608 0.0102474 -0.0189967
0.0502865 0.000268645 -0.00810128
0.00657162 0.0516326 -0.0575176
0.0541045 0.0251975 -0.0104884
0.049492 0.00027222 -0.00697738
0.051797 0.000361098 -0.013485
0.0485896 0.00472615 -0.0295204
0.0540943 0.0111757 -0.00800583
0.0544628 0.0107168 -0.0130676
0.0490807 0.000274955 -0.00588972
0.0549304 0.0197688 -0.0230006
0.0434453 0.0401874 -0.0320256
0.0521592 0.00973847 -0.0250078
0.0369198 0.00168793 -0.041953
0.0460036 0.0281978 -0.0359861
0.0425918 0.01423 -0.0420003
0.0445152 0.00820167 -0.037964
0.049489 0.00029904 -0.00396243
0.0260428 0.0477769 0.0361074
0.0368726 0.000359055 -0.0403347
0.0531091 0.0266396 -0.0255124
0.0364423 0.0472467 0.0375199
0.0606499 0.0479533 0.0516487
0.0369761 0.000359055 -0.0401555
0.0496588 0.0489071 0.0384115
0.0438213 0.000345371 -0.0349993
0.0364755 0.0282397 -0.0443558
0.0386334 0.00363147 -0.041585
0.0472972 0.000353745 -0.0248789
0.0535749 0.0478077 0.0418943
0.0518241 0.000363957 -0.012038
0.0718692 0.047512 0.0332812
0.0468967 0.0305525 -0.0325059
0.0505873 0.0162421 -0.0295803
0.0501539 0.000388874 -0.00273097
0.0475273 0.0237528 -0.035947
0.0328738 0.0487037 0.062739
0.0369929 0.0482588 0.0390735
0.0716409 0.000549408 0.113086
0.0541008 0.00618703 -0.0124946
0.0257431 0.000719048 -0.0466116
0.0407588 0.0484783 0.0711964
0.0533972 0.0181646 -0.00651331
0.0543332 0.014687 -0.0143923
0.0270532 0.000713277 -0.0458425
0.0418626 0.0133694 -0.0422919
0.028048 0.000745978 -0.0451528
0.0486154 0.0207758 -0.0349957
0.0480913 0.00173148 -0.0255321
0.0313863 0.000582143 -0.0448373
0.0325908 0.000575703 -0.044751
0.0370838 0.0117008 -0.045119
0.0201457 0.0182624 -0.0481068
0.033721 0.000573127 -0.0435935
0.0412017 0.048958 0.0583634
0.0546253 0.0122195 -0.0145062
0.0233314 0.0481296 0.0334111
0.0417271 0.0427626 -0.00842655
0.0345416 0.000571517 -0.0426723
0.0351505 0.000569907 -0.0421175
0.0355087 0.000692932 -0.0419772
0.0194818 0.00766308 -0.0453899
0.0381833 0.00398958 -0.0421646
0.0357539 0.000567975 -0.0416724
0.0371728 0.0292226 -0.0438948
0.0519017 0.0300727 -0.0254637
0.0522215 0.0141988 -0.0270997
0.0482449 0.01371 -0.0352374
0.0539692 0.0473317 0.0209775
0.0362586 0.000566687 -0.0411983
0.044207 0.0493132 -0.0106314
0.0366539 0.000633731 -0.041047
0.0207013 0.0507852 -0.0437442
0.0537283 0.0286685 -0.0145399
0.0519374 0.000666432 -0.0150418
0.053673 0.0231655 -0.00903571
0.0439637 0.0482721 -0.0114926
0.0440417 0.000766508 -0.0350176
0.0481909 0.0480388 0.0140691
0.0451241 0.000704424 -0.0325629
0.0505328 0.0306784 -0.0270245
0.0355504 0.0480982 0.0203751
0.0455285 0.000743834 -0.0319644
0.0521703 0.0466785 -0.00400494
0.0323563 0.0330392 -0.0460572
0.0461774 0.000718992 -0.0299899
0.0537668 0.027695 -0.0154732
0.0440914 0.0464984 -0.000831455
0.0537012 0.00923854 -0.0154202
0.0416184 0.0456596 -0.0410482
0.0462355 0.000648913 -0.0295177
0.0463673 0.00072538 -0.0289895
0.0498876 0.0201826 -0.0329923
0.0225848 0.0317204 -0.048082
0.0537612 0.00715886 -0.0155328
0.0470113 0.000725406 -0.0270027
0.0472173 0.000554452 -0.0260172
0.0472645 0.000556384 -0.0253355
0.0417168 0.0440162 -0.0117444
0.0541821 0.010693 -0.0155538
0.048019 0.000832585 -0.022962
0.0486975 0.0472899 0.0229465
0.045088 0.0054142 -0.0361052
0.0487804 0.000559604 -0.0217099
0.0495758 0.000702856 -0.0210179
0.0427339 0.0110086 -0.0411827
0.0520053 0.0326689 -0.0145743
0.0502765 0.0372342 -0.0240185
0.0539672 0.0167239 -0.0105928
0.0501324 0.000557028 -0.0201682
0.0504975 0.000784106 -0.0199607
0.0539655 0.0478687 0.0396709
0.0343588 0.0251734 -0.0462887
0.030481 0.0471497 0.0315947
0.0749689 0.0476635 0.028
0.0380499 0.0115863 -0.0446291
0.0512597 0.00062514 -0.018149
0.0531798 0.00916959 -0.0205299
0.0532881 0.0286344 -0.0185023
0.0601911 0.0474347 0.0249541
0.0514157 0.000801364 -0.0179455
0.0517247 0.000696387 -0.0165103
0.0538172 0.00983503 -0.0153859
0.0338131 0.000780947 -0.0438339
0.0483829 0.0118334 -0.0333983
0.0517927 0.000560892 -0.0160924
0.0527076 0.00220805 -0.0140078
0.0517593 0.000562824 -0.0155502
0.0425788 0.0488622 0.0619485
0.0515523 0.00421776 -0.0220089
0.051946 0.000668277 -0.0145269
0.0416346 0.0472883 0.02598
0.052006 0.000671705 -0.0135229
0.0515676 0.0242083 -0.0300323
0.0379987 0.046989 0.0266157
0.0519893 0.000679601 -0.0115019
0.0455081 0.0176846 -0.0394277
0.052006 0.000681505 -0.010973
0.0268657 0.0497444 -0.0348673
0.0484325 0.0481651 0.0155875
0.0433277 0.00794239 -0.0393542
0.0481207 0.0328313 -0.0269725
0.052043 0.00068313 -0.0104588
0.0536562 0.0052136 -0.014998
0.048893 0.00116678 -0.00601494
0.0512243 0.000585362 -0.00947688
0.043113 0.0161293 -0.0417261
0.0484876 0.00373449 -0.0279884
0.050793 0.00058987 -0.008824
0.0491828 0.000752386 -0.0069463
0.0462188 0.0482734 0.0535533
0.0502747 0.0274498 -0.0307216
0.0440283 0.00125505 -0.0354608
0.0431469 0.0455528 -0.0315674
0.0490495 0.000718404 -0.00644385
0.0489938 0.000683151 -0.0060069
0.0533004 0.0242214 -0.027881
0.0489135 0.000759809 -0.00554598
0.0529899 0.0196886 -0.0270189
0.0490505 0.000701248 -0.00504213
0.0508392 0.0476835 0.0466561
0.0369551 0.0215895 -0.0457919
0.0530559 0.0475655 0.0225954
0.0491835 0.000761704 -0.00461174
0.0469403 0.0452177 -0.0254971
0.069934 0.046768 0.0215691
0.0541774 0.0247356 -0.006962
-0.0102848 0.0472232 -0.0558138
0.0493328 0.00072438 -0.00435315
0.0495567 0.00072438 -0.00396526
0.0281421 0.0476377 0.0285434
0.049743 0.000724702 -0.00354246
0.0346351 0.0474037 0.0171898
0.0429599 0.0479574 0.0510087
0.05021 0.000725142 -0.0026339
0.0334007 0.000781826 -0.0443484
0.0368512 0.000770393 -0.0409719
0.0409028 0.0282144 -0.0418544
0.0673115 0.0474501 0.030587
0.0526955 0.00394403 -0.00992866
0.0501239 0.0201826 -0.0325829
0.0307115 0.0487999 0.0575939
0.048941 0.000898137 -0.0218984
0.0486921 0.00224389 -0.0245028
0.0509468 0.000803812 -0.00895757
0.0482367 0.0171785 -0.0356516
0.0254294 0.00105472 -0.046755
0.0487432 0.00172484 -0.00617426
0.0490573 0.0475543 0.0220364
0.0266106 0.00115781 -0.046059
0.0538593 0.0297289 -0.0160329
0.0471298 0.046645 -0.00811874
0.0499564 0.002364 -0.0223729
0.00151084 0.0453913 -0.0515832
0.0271035 0.00115378 -0.0458554
0.0536755 0.0478549 0.0403687
0.0289722 0.00103131 -0.0448187
0.0294796 0.00102685 -0.0447398
0.0528834 0.00829476 -0.0209367
0.0443425 0.0137545 0.00640341
0.0423838 0.0413928 -0.00878917
0.0374798 0.0232723 -0.045033
0.039926 0.0469008 0.00955376
0.0332904 0.000990054 -0.0447394
0.0346264 0.000986152 -0.0431254
0.047029 0.00577004 -0.0344184
0.035024 0.00119021 -0.0430367
0.00989089 0.0153316 -0.0484685
0.0246151 0.0277655 -0.0471654
0.0355711 0.00114596 -0.0425091
0.036037 0.00106124 -0.0420221
0.0439931 0.0433591 -0.0331016
0.036705 0.00104379 -0.0414917
0.037108 0.000973702 -0.0410603
0.04618 0.0521995 -0.00814723
0.0374932 0.00107477 -0.04066
0.0422464 0.0167684 -0.042627
0.0267027 0.0477138 0.0298505
0.0436461 0.000938768 -0.0360029
0.0463737 0.000948802 -0.0294784
0.0453826 0.0102486 -0.0383949
0.0622455 0.047401 0.0314124
0.0479351 0.000967199 -0.0234739
0.00569484 0.0116719 -0.0485363
0.0428515 0.0457659 -0.0394789
0.0485061 0.000967756 -0.022385
0.0369551 0.0129725 -0.0457919
0.0410912 0.0426199 -0.0349946
0.0546119 0.0122187 -0.0150095
0.0513233 0.000962739 -0.0184055
0.0237296 0.048096 0.0321009
0.0588481 0.0472051 0.0321278
0.0532047 0.00469988 -0.0160468
0.0518499 0.000968871 -0.0163934
0.0641939 0.0477252 0.0314537
0.0528397 0.00579953 -0.0209456
0.0521591 0.00117943 -0.0149578
0.0750245 0.0476028 0.0274795
0.0166319 0.0346789 -0.0483927
0.0640736 0.0475832 0.0309788
0.0514414 0.0102076 -0.0265009
-0.000121351 0.0311786 -0.0494102
0.0521767 0.00104491 -0.0144939
0.0601322 0.0471948 0.031052
0.0212283 0.0469649 0.0267686
0.061678 0.048203 0.0150294
0.0522166 0.00108222 -0.0139581
0.0542119 0.0217494 -0.0251022
0.0747752 0.0474961 0.0199144
0.052181 0.0010918 -0.01247
0.0522538 0.00106445 -0.0110938
0.000884924 0.0307194 -0.0490673
0.00763927 0.0154317 -0.0509684
0.0248647 0.0492135 0.060067
0.0346276 0.0480868 0.0473767
0.0522745 0.000996744 -0.0106579
0.0525758 0.00124634 -0.010536
0.0262636 0.046941 0.0214899
0.0518823 0.00630495 -0.00800391
0.0497457 0.0227354 -0.0332379
0.0191423 0.047778 0.0435555
0.061449 0.0472545 0.0196327
0.0489365 0.00116342 -0.00648945
0.0457922 0.0242629 -0.0380856
0.0242613 0.0296442 -0.0475783
0.0491287 0.00117103 -0.00490652
0.0528216 0.00427189 -0.0189771
0.0495343 0.00119466 -0.00400405
0.0495716 0.0312793 -0.00447271
0.0221238 0.0412453 -0.0388805
0.0251256 0.00128154 -0.0466813
0.0290811 0.00124913 -0.0446301
0.0444017 0.0291418 -0.0374274
0.0343419 0.00133148 -0.0438513
0.0518665 0.00465236 -0.00836463
0.0358943 0.00132191 -0.0424292
0.0548473 0.0470933 0.00479835
0.0195584 0.0206322 -0.047524
0.00644994 0.0118951 -0.0479283
0.0374995 0.0012777 -0.0409822
0.0332392 0.0467026 -0.051628
0.0424045 0.00126048 -0.0375532
0.0433214 0.0271795 -0.0397651
0.0371238 0.0482845 0.0399669
0.0444431 0.00123686 -0.0345222
0.0521802 0.01022 -0.0250214
0.012845 0.0463201 -0.0564185
0.0535177 0.0478817 0.0236954
0.0451736 0.00123872 -0.033007
0.0536028 0.0474732 0.0220428
0.0415876 0.0474162 0.0238318
0.0452102 0.00114109 -0.0326937
0.0410998 0.0473323 0.0119869
0.0417714 0.00962289 -0.0416499
0.0453835 0.00125953 -0.0325135
0.0420896 0.0272216 -0.0410487
0.0466257 0.0227024 -0.0371219
0.0420311 0.0470973 0.0166
0.0463752 0.00121216 -0.0300091
0.046491 0.00124736 -0.029542
0.022298 0.0411233 -0.0391787
0.041998 0.00224478 -0.0375573
0.0400253 0.0276785 -0.0424408
-0.00757837 0.0454384 -0.0515261
0.0466934 0.00115123 -0.0286247
0.0472297 0.0011546 -0.0271957
0.0473679 0.00127504 -0.0269964
0.0482283 0.00314018 -0.0269662
0.0431515 0.0102158 -0.040726
0.0475434 0.00127658 -0.0264924
0.0477548 0.0012269 -0.0255528
0.0481257 0.00128751 -0.0240038
0.0520885 0.00579782 -0.00897998
0.0481551 0.00121964 -0.023493
0.0459944 0.0492843 0.0633645
0.050176 0.00116405 -0.0206926
0.0505231 0.00128276 -0.0204914
0.050664 0.0011627 -0.0200474
0.0442885 0.0484465 0.06611
0.0515253 0.0462145 0.000494456
0.0512357 0.00124402 -0.0190171
0.0516483 0.00125016 -0.0174625
0.0513459 0.0174543 -0.0294663
0.0517033 0.00127289 -0.0170472
0.053153 0.00918739 -0.0209696
-0.00745348 0.0454948 -0.0510098
0.0487506 0.00127478 -0.00676148
0.0277596 0.0465743 0.017281
0.0525777 0.0317846 -0.0150328
0.0256522 0.00150025 -0.0463691
0.0527422 0.0313724 -0.0164478
0.0518845 0.00295275 -0.0199334
0.0274505 0.00170279 -0.0454793
0.0450143 0.0327259 -0.0329663
0.0548665 0.0251611 -0.0189685
0.0550678 0.0477543 0.0169302
0.0283737 0.00147646 -0.0446554
0.00650795 0.0551889 -0.0565679
0.0533564 0.00480102 -0.015784
0.0445817 0.014631 0.00351763
0.0335875 0.00140351 -0.0448247
0.0556663 0.0476055 0.0295168
0.0445051 0.0192046 0.00601838
0.0471171 0.0461584 -0.0030907
0.0418331 0.00134166 -0.038343
0.055117 0.0247252 -0.0185746
0.0347796 0.0487495 0.07444
0.0523567 0.00139796 -0.0130156
0.0543794 0.0181815 -0.0174787
0.0522022 0.0480301 0.0536168
0.0537455 0.0135311 -0.02211
0.0470527 0.0431593 -0.0249689
0.0523305 0.00140272 -0.0124609
0.0530126 0.00569813 -0.0104794
0.0549445 0.0474286 0.0209666
0.0523834 0.00140589 -0.0119693
0.0364586 0.0317127 -0.0439018
0.0456931 0.0401712 -0.0146572
0.0486945 0.00167783 -0.00653858
0.0522649 0.00588443 -0.00927456
0.0322075 0.0447581 -0.0512149
0.0394681 0.0062243 -0.0423892
0.0491408 0.00159498 -0.00500573
0.0300332 0.0463684 0.014019
0.048992 0.00233 -0.00639335
0.0544241 0.0102145 -0.0130347
0.0492208 0.00150818 -0.00454709
0.0517277 0.0298102 -0.0260717
0.0494538 0.00177376 -0.0044636
0.0378827 0.0481301 -0.0379851
0.0495506 0.0017317 -0.00400916
0.0496456 0.00168942 -0.00357123
0.0463944 0.0181703 -0.0384426
0.0546465 0.0167406 -0.0155495
0.0339837 0.00176016 -0.0449386
0.0483591 0.00227881 -0.0254797
0.0468801 0.0103154 -0.0363613
-0.0138691 0.0453182 -0.0594886
0.0490841 0.0112465 -0.0320088
0.036669 0.00168988 -0.0421874
0.0255562 0.0478602 0.0269648
0.0371883 0.00165219 -0.0416547
0.040403 0.0197711 -0.04442
0.0374534 0.0017179 -0.0414621
0.0378263 0.00168315 -0.040883
0.034578 0.0320886 -0.0451092
0.0421381 0.00182203 -0.0376146
0.0428843 0.00173667 -0.0368556
0.047435 0.0182425 -0.0368401
0.0488743 0.0478615 0.0484527
0.0430914 0.00177486 -0.0366436
0.0437228 0.00173015 -0.0360364
0.0438867 0.00172981 -0.0357859
0.0226128 0.047777 0.0301666
0.0217224 0.0477704 0.0360244
0.0552453 0.0242422 -0.0179123
0.0460987 0.00321569 -0.0329547
0.0431432 0.0462277 -0.0390737
0.0442828 0.00153177 -0.0350999
0.0450656 0.00175208 -0.0339691
0.0452818 0.00153359 -0.0331696
0.0454994 0.00172968 -0.0329928
0.041336 0.0452591 -0.014004
0.045666 0.00170691 -0.0325041
0.0523255 0.0107046 -0.0247696
0.0456509 0.0478034 -0.00963028
0.0457871 0.00153542 -0.0320943
0.0553512 0.0232141 -0.0194623
0.0460866 0.0016679 -0.0315423
0.0467495 0.00154634 -0.0292275
0.0472036 0.00165064 -0.027991
0.0442676 0.0191874 0.0049738
0.0695327 0.0486399 0.0218341
0.0476682 0.00155545 -0.0266362
0.0479834 0.00175736 -0.0260046
0.0492161 0.00322875 -0.0240886
0.067047 0.047997 0.0357288
0.0481792 0.0016835 -0.0249913
0.02253 0.0485474 0.0400232
0.0482064 0.00156547 -0.0246041
0.0485374 0.0017932 -0.0240058
0.0609439 0.047755 0.00651798
0.0410145 0.0122689 -0.0428607
0.0485732 0.00162025 -0.0235187
0.0423263 0.0479388 0.0137112
0.0487638 0.00157093 -0.0230385
0.0495875 0.00170192 -0.0220454
0.054193 0.0247682 -0.0154349
0.0500625 0.00174061 -0.0215642
0.0485853 0.0162386 -0.0349811
0.0494297 0.0123932 -0.0317853
0.0502211 0.00156456 -0.0212145
0.0415074 0.0458598 -0.0164572
0.0418108 0.0442067 -0.0137816
0.050555 0.00178826 -0.0209862
0.0507016 0.0016294 -0.020649
0.038516 0.0467048 0.00741159
-0.0132725 0.0462827 -0.0591886
0.0509352 0.00182915 -0.0204444
0.0399038 0.0488637 0.0226153
0.0513746 0.00180505 -0.0194166
0.0371702 0.0485474 0.0653806
0.0125629 0.0561926 -0.0566405
0.0436479 0.0141532 -0.0410569
0.0428922 0.0122724 -0.0413085
0.0422034 0.00470041 -0.0387016
0.0247503 0.0476052 0.0258688
0.040869 0.045764 -0.00596274
0.0115617 0.0452417 -0.0519745
0.0517835 0.00167927 -0.0171083
0.0284246 0.0474341 0.0230328
0.052507 0.00169279 -0.0144553
0.0596523 0.0481137 0.0494207
0.044732 0.0066532 -0.0366552
0.0282435 0.0473528 0.0393192
0.0525188 0.00171172 -0.0124848
0.0493481 0.0157418 -0.0329266
0.0510513 0.0334772 -0.0157765
0.0241576 0.00197046 -0.0465578
0.0508227 0.0134586 -0.0303726
0.0343936 0.00181003 -0.0444286
0.0542797 0.0180154 -0.0115848
0.0469503 0.00187351 -0.029413
0.0390314 0.0174685 -0.0451957
0.0488852 0.00191905 -0.0234783
0.047996 0.046875 -0.0250685
0.00989089 0.0162151 -0.0484685
0.0234011 0.0476346 0.0289319
0.0214246 0.0469819 -0.0410916
0.0342808 0.0040802 -0.0450239
0.049028 0.00185021 -0.023041
0.0451699 0.0236886 -0.0391633
0.0545499 0.0147303 -0.0130368
