ply
format ascii 1.0
comment Created by Open3D
element vertex 1636
property float x
property float y
property float z
end_header
0.06616 0.011395 0.0145037
0.0526 -0.010551 0.00397451
0.0436333 0.0517544 0.0319916
0.0427 -0.0127772 -0.00680234
0.0426667 -0.0127433 -0.00649901
0.04865 -0.0112429 0.0100698
0.0651 0.0313481 0.0139886
0.0565 0.00892705 0.0294242
0.06615 0.0273437 0.0110101
0.0546333 -0.00822839 0.000933743
0.051425 -0.00156755 0.0269194
0.0569 -0.00650953 0.00700777
0.05495 -0.00906561 0.006972
0.017 0.0468452 -0.0404597
0.05995 0.0193422 0.0294417
0.0424 -0.0129315 -0.00613382
0.0664167 0.0193608 0.00100697
0.0459 0.0092479 -0.0183228
0.0588 -0.00540464 -0.000705283
0.0493 0.0274954 0.0379773
0.06275 0.0128218 0.0231138
0.0482 -0.012163 -0.00295907
0.0576 -0.00521305 -0.00211272
0.0467 -0.0102379 0.0159604
0.0643 0.023884 -0.00257381
0.0035 0.0494153 0.079976
0.0231 0.0458984 -0.0279926
0.0161 0.0480632 0.0664667
0.0483 -0.0121497 -0.00273991
-0.00209999 0.0480964 0.0710435
0.0422 0.0508352 0.0359328
0.064775 0.01284 0.0200278
0.0485 -0.0119078 -0.00338033
0.0662667 0.0299917 0.0134234
0.0621333 0.040841 0.00907233
0.0454 0.0473899 0.0377168
0.0674 0.0108961 0.00654972
0.04214 -0.000153359 0.0364355
0.0642333 0.0238606 -0.00351275
0.0516 -0.00796553 0.0171344
0.0585 -0.00168222 -0.00531391
0.0327 0.0452243 -0.0289783
0.0477 -0.0102188 0.0189227
0.0520333 -0.00903136 0.0104217
0.0516 -0.00505121 0.0214019
0.0273 0.046107 -0.0376024
0.05104 -0.0110746 -0.000479416
0.0486 -0.01211 -0.00251572
0.0213 0.045487 -0.0493874
0.0483 -0.0119338 -0.00360366
0.049 -0.012057 -0.00229042
0.0467 -0.0112632 -0.00586358
0.0654333 0.0183905 -0.000296486
0.0671333 0.0143677 0.0129225
0.03515 0.0483274 0.0643951
0.0489 -0.00606358 -0.0108739
0.0536333 0.0462483 0.0449421
0.03695 0.047255 -0.0345041
0.0548 -0.00587151 0.0165142
0.055525 -0.00661736 0.0134893
0.04425 0.0452603 -0.0275504
0.0655 0.0163565 -0.000471733
0.0543 0.00176272 0.0271051
0.0355 0.0469356 0.0410486
0.0496 -0.011126 0.008475
0.0456 -0.0073947 0.0249662
0.0339 -0.00806136 0.0313086
0.0069 0.0466173 -0.0365732
0.0637 0.00282716 0.0139806
0.0492 -0.0120304 -0.00196478
0.053 0.000867493 0.0289503
0.0629667 0.0222639 0.0233361
0.0495 -0.0119907 -0.0016385
0.0672 0.00835461 0.00605347
0.0503 -0.0118848 -0.00120157
0.0538 -0.00370759 -0.0076502
0.0620375 0.0223719 0.0250022
0.0375333 0.0453788 -0.0410247
0.0505125 -0.0116196 -0.000961767
0.0387667 0.0382373 -0.0135137
0.050725 -0.0117234 -0.00046017
0.0599 0.0162342 0.0284776
0.0518 -0.0102321 -0.00118147
0.0624667 -0.00260462 0.00498649
-0.0089 0.0475929 0.0797027
0.0621 0.0168278 0.0244547
0.0539 -0.00127029 -0.0112908
0.0665667 0.0158629 0.00247472
0.0468 0.0517364 0.0288188
0.04815 -0.00924988 0.0188845
0.06525 0.00584999 0.0124644
-0.00175 0.0479779 0.0610216
0.050975 -0.0116905 -3.96062e-05
0.00120001 0.0466526 -0.0479449
0.0657222 0.0268897 0.0154467
0.049725 0.0393774 0.0254697
0.0648 0.00243216 -0.000476086
0.0502 -0.00872606 -0.00511508
0.0664556 0.0248926 0.0139086
0.0159 0.0469719 -0.0396526
0.0629333 0.039393 0.0090699
0.0635889 0.000851849 0.00797325
0.0514 -0.0116347 0.000690899
0.0650333 0.0283749 -3.33169e-05
0.0498 -0.00281761 0.0281035
0.0561667 -0.00630379 0.0130249
0.05145 -0.0116282 0.00100323
0.0620333 0.0347736 -0.00153404
0.0478 -0.00678814 0.0226475
0.0158 0.0455474 -0.0467038
0.06326 0.00631293 0.0195006
0.0488 -0.0103654 0.0140262
0.0643 0.0247308 -0.00582704
0.0508 -0.00887781 -0.00413556
0.0644 0.024164 -0.00501823
0.0421 0.0116962 0.0424905
0.039 0.036088 -0.0184771
0.05766 -0.00423972 0.0150292
0.0510333 -0.00948309 0.0109595
0.0644 0.0347565 0.00860061
0.0516 -0.0105469 -0.000518069
0.001 0.0450832 -0.0550513
0.0515 -0.0116216 0.00141952
0.059625 0.00236276 0.0215883
0.0421 0.0113504 0.0384561
0.051425 -0.0116314 0.00246364
0.0670333 0.0233224 0.0109643
0.0152 0.0490001 0.0600433
0.0169 0.0489124 0.0557468
0.0648 0.00532451 0.0131002
0.0659833 0.0158147 0.0189654
0.06728 0.00933859 0.00649202
0.0470333 -0.00757442 0.0209385
0.02695 0.0454516 -0.0469034
0.04895 -0.010134 0.0139495
0.0513 -0.00381512 0.024712
0.044075 0.00592618 0.0394874
0.04375 0.00231964 0.0408678
0.0440167 0.0473294 0.0600042
-0.000599995 0.0465954 -0.0490633
0.057475 0.0072844 0.0274127
0.0586167 -0.00417118 -0.00300663
0.0558 -0.00778535 0.00184624
0.0496 0.0364517 0.0355101
0.04065 0.0288308 -0.0239069
0.04515 -0.00620157 0.0275422
0.0473 -0.0105359 0.0188411
0.0639 0.0272508 0.0198277
0.0650714 0.00582616 -0.000499632
0.0539 -0.00390604 -0.00662758
0.0514 -0.0116347 0.00277726
0.0496 0.039432 -0.014835
0.0591 0.0038548 0.0230151
0.05355 -0.00463454 -0.00757066
0.0096 0.0490494 0.0765556
0.0486 -0.00210192 0.0314905
0.0659 0.0221724 0.0173872
0.0672571 0.0178183 0.0139529
0.059725 -0.00472876 0.00804559
0.051 -0.0109537 0.0067718
0.037225 0.0477339 0.0534399
0.051225 -0.0116577 0.00309635
0.0575 0.00781647 0.0274529
0.04075 -0.00555435 -0.016521
0.014 0.0494713 0.0625491
0.0583 0.0057206 0.0260324
0.06325 0.00133762 0.0154788
0.0449 0.0476404 0.0376922
0.0535 0.0042913 0.0309567
0.0328 0.0451191 -0.0439715
0.051775 0.0482476 0.0544962
0.05105 -0.0116807 0.00352141
0.0529 -5.44214e-05 0.0273428
0.05055 -0.0100611 -0.0029887
0.0117 0.0482595 0.0574974
0.05545 -0.00841502 0.0039444
0.061 0.0162748 0.0254047
0.0653 0.00795699 0.000758412
0.0263 0.0454452 -0.0376683
-0.000599995 0.0482509 0.0646651
0.0335333 0.0463145 -0.0330156
0.0544 -0.00623503 -0.00403585
0.0277 0.0454145 -0.0325767
0.050975 -0.0116905 0.00394362
0.0493 -0.0107358 -0.00356436
0.0054 0.0490444 0.0755348
0.0562 -0.0076497 0.00746148
0.0599 0.0243763 0.029295
0.0622333 -0.00273449 0.00158304
0.0585333 -0.00168157 0.0184764
0.001 0.0467198 -0.043595
0.0509 -0.0117003 0.00447145
0.0623 0.0399302 0.0120415
0.051025 -0.011684 0.00498895
0.0652125 0.0318075 0.00602058
0.0424 -0.00856469 0.026502
0.061 -0.00470025 0.00452265
0.0472 -0.0101102 0.0155835
0.053 -0.00497121 -0.00854084
0.0659 0.0306643 0.00930242
0.04995 -0.0110829 0.00801803
0.0673 0.0174165 0.00553157
0.0493 0.0362522 0.0300748
0.0038 0.0486652 0.0764326
0.046075 -0.00813176 0.0214125
0.03775 0.0452027 -0.0274944
0.0510833 -0.0116763 0.00550916
0.0429 0.00428373 -0.0202789
0.00400001 0.0485938 0.0574254
0.0142 0.0482078 0.052526
0.0628 -0.000230027 0.00905532
0.01415 0.0458561 -0.0465833
0.0555667 0.0168475 0.0329675
0.04965 -0.00963054 0.0140019
0.06426 0.00187887 0.00658334
0.0595 0.0282577 0.0274193
0.050975 -0.0116905 0.00603999
0.04975 0.0373474 0.0299255
0.0324667 0.0464411 -0.027691
0.0507 -0.0117617 0.00651432
0.0454 -0.00763313 0.0243508
0.0054 0.0480935 0.0639658
0.036 0.0473234 0.0703628
0.0496 -0.0119775 0.00730407
0.060625 -0.00308707 0.0104787
-0.008 0.0483508 0.0654548
0.0419 0.00132475 0.0356471
0.0445143 0.00536913 0.0394832
0.0489 -0.0120702 0.00778967
-0.00849999 0.0481644 -0.043952
0.0544333 0.00693162 0.0313615
0.0431 0.0510521 0.0308756
0.000200003 0.0479763 0.0774653
0.05625 -0.00754653 0.00193492
0.0382 0.0450038 -0.0222193
0.0435 0.00645399 0.0399892
0.0502 -0.00830314 -0.00564362
0.0364 0.0478732 0.0683845
0.0670333 0.015848 0.00452084
0.04842 -0.0120045 0.00994416
0.01745 0.0455195 -0.0465162
0.0628 0.0108957 0.0219443
0.0111 0.0481816 0.0655065
0.0531 -0.00598867 0.01889
0.009 0.0483496 0.0713551
0.0514 0.0475138 0.0494075
0.0469 0.0109035 -0.0191146
0.0562 -0.006696 -7.01661e-05
0.04678 0.0518792 0.0279908
0.0557 0.0120565 0.0335111
0.0501 -0.00270251 0.0279041
0.01615 0.0480438 0.0690646
0.0645111 0.00439671 0.0124988
0.0532 -0.00777032 0.0150359
0.04895 0.0477556 0.0509882
0.0581 -0.00255834 0.0176103
0.0407 0.0463537 -0.0216736
0.0484 -0.0119927 0.0120745
0.062 0.00734409 0.0234299
0.0638 0.00270375 0.00950624
0.0585 0.000428812 0.0219384
0.0634 0.021778 0.0229643
0.0111 0.0487887 0.0744608
0.03065 0.0453158 -0.027472
0.0312 0.0478421 0.0619531
0.0537 -0.00838596 -0.000139919
0.0037 0.0454913 -0.0515748
0.0399 0.046138 -0.036227
0.05175 -0.0108614 0.00141545
0.0586714 0.0448727 -0.00946133
0.0495667 -0.00161822 0.0303768
0.0484667 -0.011984 0.012425
0.06006 -0.00370198 0.0094333
0.0371 0.0453687 -0.0416017
0.0383 0.036386 -0.0215748
0.0564 0.0117595 0.0327405
0.0565667 -0.00663396 0.00850937
0.000300005 0.047942 0.0593167
0.0424 -0.0127016 -0.0060189
0.0624 0.00299708 0.0189394
0.0507 -0.00531292 -0.0102385
0.04965 -0.0112263 -0.00259331
0.0427 -0.0126626 -0.00565672
0.0497 -0.0116099 -0.00213104
0.0652 0.00285958 0.00199241
0.0672444 0.0203424 0.0120462
0.0634 0.00157555 0.00889475
0.043 0.0124109 0.0404552
0.0416333 0.0397024 -0.0176092
0.05595 -0.0069798 0.012036
0.0656833 0.0217413 0.000404398
0.0481 -0.0119598 -0.00382793
0.041175 0.050321 -0.00353456
0.052525 -0.00963316 -0.0010688
0.0043 0.0494452 0.0803062
0.0663 0.0159639 0.0175392
0.064 0.0023013 0.00790793
0.049 -0.00519977 0.0249242
0.0525 -0.00829652 0.013457
0.0638 0.030995 -0.00120017
0.04918 -0.0102368 0.0125135
0.0620444 0.0228976 0.0250229
0.0488 -0.0118687 -0.00293973
0.06525 0.0328695 0.0158087
0.0634 0.00608502 0.0188156
0.0502 -0.00957192 0.0120136
0.061625 -0.00265605 0.00949311
0.0566 -0.0047002 0.0155107
0.0491 -0.0118297 -0.00260922
0.0593 -0.000240456 -0.00402652
0.0593 0.026871 0.0300212
0.0674111 0.0103816 0.00740338
0.05145 -0.0104813 -0.00108196
0.0485167 -0.0115825 0.0114846
0.0495 -0.0116355 -0.00249111
0.0645 0.0323103 0.0134784
0.0540333 -0.00282054 0.0215209
0.04075 -0.00321717 0.0354806
0.05425 0.00337915 -0.0125575
0.0538 -0.00776729 -0.00115468
0.0607429 0.024773 0.027547
0.0478 -0.010262 0.0150485
0.050175 -0.0115841 -0.00152061
0.0554 0.0173787 0.0329329
0.0515333 0.0484145 0.0553398
0.0516667 -0.0110797 0.00401688
0.0509 -0.0115954 0.00635978
0.0502 -0.0115809 0.00704413
0.0371 0.0484784 0.0569376
0.0639 -0.000405951 0.00211664
0.0101 0.0485554 0.078862
0.0639 0.00143086 0.00744788
0.0431333 0.0488296 -0.00890103
0.05 -0.0116067 0.00727175
0.04915 -0.00166139 0.0309803
0.05305 -0.00814212 -0.00147192
0.0448 0.0452246 -0.0264953
0.0594667 0.0128452 0.0269881
0.05765 -0.00548118 -0.00139416
0.0504 0.0397159 0.0324529
0.0501333 -0.0061227 0.0210162
0.0497 0.0398135 -0.0151374
0.0497 -0.00664826 0.0204797
0.0125 0.0488593 0.0763542
0.0536 -0.00724292 -0.00448047
0.04265 0.0484236 -0.00955673
0.05915 -0.00557173 0.00396218
0.066525 0.0267938 0.00803451
0.0497 -0.0116454 0.00750862
0.0649889 0.00136607 0.00199801
0.05365 -0.00757747 -0.00207177
-0.00289999 0.0456751 -0.0480151
0.01355 0.0481591 0.0675368
0.0497 -0.0109011 0.00878447
0.06625 0.00774718 0.0120589
0.0381 0.0458878 -0.0245206
0.05215 -0.00936406 0.00947723
0.06396 0.0258088 0.0209701
0.0663 0.0121024 0.0146322
0.048475 -0.00813932 -0.00844617
0.0658 0.0210082 0.0180513
0.05012 0.0408771 0.0209769
0.0637 -0.000766363 0.00293072
0.04914 -0.011739 0.00802611
0.0665 0.0258943 0.00937854
0.06025 -0.00127045 0.0161152
0.0621833 0.00581514 0.0225044
0.0557 -0.00832404 0.00753908
0.0526 -0.00952191 0.00809073
0.047525 0.0499186 0.0265259
0.06005 -0.00127375 -0.0025771
0.0406 0.0464003 -0.0225149
0.0615833 -0.00364998 0.00301195
0.0129 0.0481074 0.0584561
0.0638 0.00282338 0.0129754
0.0514 0.0470965 0.0389757
0.0487667 -0.0118015 0.00858884
0.0387667 0.0484085 -0.0429147
0.05698 -0.00665977 0.00444005
0.0508 -0.0107683 0.00720711
0.0402 0.0490548 -0.0410536
0.00255 0.0487882 0.0594942
0.06015 0.0143345 0.0264772
0.04925 -0.00988687 0.0129954
0.0523 -0.0103807 0.00605333
0.0184 0.0493186 0.0735369
0.04864 -0.0116315 0.00940395
0.05312 -0.00958813 0.000431973
0.0653 0.00118466 0.00462832
0.0561 -0.00704651 0.000496146
0.0521667 -0.00763872 0.0169557
0.055 -0.00906028 0.00496625
0.0484333 -0.0119165 0.0114951
0.0305333 0.0459871 -0.0261267
0.05942 0.0262871 0.0299259
0.049 0.0404436 -0.0105404
0.0673 0.017017 0.006787
0.0483 -0.00739914 -0.0085702
0.0515 -0.0104754 0.00683807
0.0409 -0.00472916 -0.0160293
0.0601 0.0318226 0.0259856
0.0547 -0.00768619 -0.000138297
0.057025 -0.00654866 0.0064599
0.0152 0.0484124 0.0575452
0.05175 0.000152672 0.0300936
-0.000699997 0.0482852 0.0643798
0.0249 0.0451916 -0.0346086
0.0189 -0.00292735 0.0491377
-0.0016 0.0449262 -0.0535803
0.0396 -0.00502762 0.0336458
0.057 0.0214476 0.0332873
0.0429 -0.0124079 -0.00701701
0.0463 -0.0102083 0.0169482
0.0525 -0.00829652 0.0139723
0.0637333 0.00228699 0.0104724
0.01165 0.0482783 0.0570664
0.02825 0.046771 -0.0379434
0.05315 -0.00987102 0.00200655
0.0156 0.0459137 -0.041799
0.0486 -0.00210192 0.031921
-0.00739999 0.0485019 0.0664042
0.045 0.0460244 -0.036842
0.0429 -0.0124079 -0.00644537
0.0498 -0.00122458 0.0305462
0.0638 0.0303849 -0.00249211
0.0527 0.000870484 0.0295642
0.0648 0.0289945 -0.000653169
0.03875 0.0511981 -0.0451073
0.0614 0.0108711 0.0252297
0.0104 0.0481381 0.0664726
0.0483 -0.00772304 -0.0085702
0.0516 -0.0111922 0.00141786
0.0644 0.000486836 0.00156866
0.043 -0.0123951 -0.0059819
0.041575 0.00886172 0.043066
0.0580667 -0.00616108 0.00250393
0.05255 -0.00993921 -3.88777e-05
0.0169 0.0500719 0.0595152
0.06655 0.0128915 0.014427
0.0646333 0.0247994 -0.00154207
0.0199 0.0460235 -0.0440308
0.053 -0.00804425 0.0124583
0.0406 0.0394173 -0.0176384
0.04964 0.0264561 0.0379838
0.04645 -0.0110731 0.0173615
0.0624 -0.00187582 0.00115332
0.0443 0.0472649 0.0298172
0.00930001 0.0333119 -0.0165239
0.0654375 0.017314 -0.000450151
0.0528 -0.0047773 -0.00938167
0.0496667 0.0379493 0.0274361
0.0230667 0.0493074 0.0624081
0.066 0.0148526 0.0189611
0.01355 0.0489034 0.0608371
0.0263 0.0454452 -0.0466377
0.0609 0.0025583 0.0207335
0.0545667 -0.00655832 0.0154194
0.0635571 0.00087778 0.0135052
0.0626143 0.0268692 -0.00551433
0.0612 0.0302897 0.0225106
0.04925 -0.0115965 -0.00303214
0.05355 0.00330483 0.0290727
0.0500667 0.0458992 0.0194435
0.0434 -0.012344 -0.00561602
0.0535 -0.00209096 -0.0119544
0.0167 0.0508308 0.0608701
0.03245 0.0450132 -0.0405694
0.0384 0.0363024 -0.0220561
0.0604333 -0.00464019 0.000995148
0.0562667 -0.0072493 0.00794852
0.0599 0.0208868 0.0287291
0.0474 -0.0118329 -0.00451125
0.03215 0.0452656 -0.0283651
0.0664 0.0288975 0.0130526
0.0447 0.0461697 -0.0371828
0.0659 0.0130406 0.0178525
0.0596667 -0.0016897 0.0164538
0.0277 0.0470012 0.0660616
0.0671 0.00991106 0.0105251
0.0603 0.0305418 0.0240813
0.04975 0.0468047 -0.0225674
0.048575 -0.0115751 -0.00402349
0.05554 0.0459299 -0.0274641
0.0545286 -0.00166369 -0.00899446
0.047575 0.0472796 0.0509963
-0.000799999 0.0453355 -0.0546038
0.06725 0.00935526 0.00846912
0.04712 0.0113586 -0.0171229
0.0552 -0.00824021 0.0024583
0.0166 0.0488862 0.0564638
0.0493 -0.00539621 0.0239877
-0.0036 0.0482659 0.0660449
0.0487 -0.0116668 -0.00358794
0.05654 -0.00665571 0.00796181
0.00606667 0.0463834 -0.0395356
0.04905 -0.01023 0.0134524
0.0127 0.0472838 0.0519532
0.0493 -0.00475547 0.0256963
0.0089 0.0480778 0.0675507
0.03955 0.0393213 -0.0140005
0.0087 0.0447501 -0.0520016
0.0453 -0.00831021 0.0230386
0.0486 -0.00608355 -0.0115554
0.0519 -0.0106355 0.000998189
0.0399333 0.0469866 0.0414672
0.0508 -0.0112934 -0.00056472
0.0451167 0.00485635 0.0370477
0.06478 0.0333241 0.0124897
0.0516 0.000465062 0.0309774
0.0634 0.00635559 0.0179137
0.063425 -0.000138035 0.00690833
0.0639 -0.00398998 0.0735284
0.051425 -0.0112143 0.000586385
0.0407 -0.00614171 -0.0171373
0.0351 0.0478564 0.0517041
0.0494 -0.0109373 0.00924034
0.058 -0.00603717 0.00343931
0.0389 0.036719 -0.0189716
0.0662667 0.0233937 0.00231125
0.0307 0.048062 0.0628812
0.05116 -0.0111852 -6.03938e-05
0.0446 0.00589366 0.0379234
0.0477 0.040804 -0.0140599
0.0495 -0.0110318 0.00891036
0.0608 -0.00135499 0.0150715
0.0492 -0.00957166 -0.00559961
0.0562 0.0246143 0.0334108
0.0616667 0.0346296 -0.00400075
0.047 0.0479024 0.0591976
0.0596 0.000139092 -0.00581017
0.06195 0.00454607 0.0209179
0.0513 -0.0112301 0.000273934
0.0511 -0.00591715 0.0203715
0.0515 -0.0112048 0.00100272
0.0588 -0.00234527 -0.00414708
0.0359 0.0455303 -0.0385326
0.04305 0.0503936 0.0305493
0.0073 0.0471022 -0.0386507
0.0634 0.0125787 0.021882
0.0384 0.047906 -0.0439473
0.05165 -0.0111858 0.00193724
0.0670111 0.0143918 0.0139755
0.0533 -0.00944565 0.00782177
0.054 0.0063254 0.0319591
0.0495333 0.0393544 0.0264824
0.0414 0.0475363 0.0379184
0.0610667 0.000446291 0.0179017
0.0456 0.0471784 0.0525306
0.0516 -0.0111714 0.00293748
0.0545 -0.00377815 0.0195924
0.0137 0.048102 0.0574934
0.0263 0.0454452 -0.0451651
0.05618 0.0163699 0.0319582
0.0519 -0.00752358 0.0172837
0.0503 -0.00237954 0.028159
0.0556333 0.00921835 0.031584
0.0258 0.0453761 -0.0420022
0.0513 -0.0113345 0.00319814
0.0397 -0.00431405 0.0331399
0.0662875 0.0132978 0.00142098
0.05615 -0.00538357 0.013982
0.057 -0.0049381 0.0139378
0.0469 0.0457616 -0.0354475
0.0512 -0.0113473 0.00351541
0.0591 -0.00458479 0.00947027
0.0486 -0.00995769 0.0206214
0.057 -0.0068926 0.00162448
0.0512 -0.0113473 0.00393362
0.0381 0.0359297 -0.0184018
0.02775 0.0488306 0.0699972
0.0605333 0.019786 0.0274728
0.0583 -0.00332165 0.0156434
0.0512 -0.0113473 0.00445639
0.0471 -0.0109962 -0.0060572
0.0672222 0.0158927 0.0139351
0.049525 0.0378401 0.0279496
0.0459 -0.0111382 0.0160234
0.0513 -0.0113345 0.00497356
0.04412 -0.00611074 0.0283832
0.0656333 0.00678321 0.00303151
0.0382667 0.0288437 -0.0198889
0.0531 -0.0098767 0.00650981
0.0316 0.0458795 -0.0345087
0.0608 -0.00284701 0.0110617
0.0669 0.0112809 0.00411605
0.0458 0.0447495 -0.0083602
0.0486 -0.00554571 0.0244954
0.0599 0.00938099 0.0258998
0.0532 -0.00613513 0.0185107
0.0635 0.00141581 0.00850042
0.0284 0.048285 0.0636788
0.0592 0.00489651 -0.00988229
0.0512333 -0.011343 0.00549994
0.0629333 -0.00101606 0.00640825
0.04815 0.04731 0.0525175
0.05112 -0.0111066 0.00642781
0.0659 0.0303153 0.00895343
0.0506 -0.00531887 0.0224861
0.0668 0.0248621 0.00694859
0.0147 0.0486063 -0.0403311
0.0391 0.0548228 -0.0453077
0.0543 -0.0067132 0.0156021
0.0385667 0.0372779 -0.0195915
-0.00559999 0.0482524 0.0748505
0.00400001 0.0485938 0.0760002
0.0511 -0.00842927 -0.00454065
0.0637667 0.00138841 0.0139683
0.0508 -0.0113984 0.00657696
0.0496333 0.0456237 -0.0255401
0.06174 0.0203701 0.02501
0.0657667 0.00927656 0.0145051
0.0489 -0.0116412 0.00843325
0.0601833 0.0299287 0.0284395
0.0526 -0.00458245 0.020954
0.056 -0.00756905 0.00144609
0.0522 -0.0033629 0.0232207
0.0456333 0.046162 -0.0230413
0.06106 -0.00410191 0.00645245
0.06146 0.0248818 0.0254694
0.0414 0.0512512 -0.004107
0.0485 -0.0115846 0.00997861
0.0386 0.0364697 -0.0144911
0.06076 -0.0046398 0.0033795
0.00703333 0.0467792 -0.0400851
0.04675 -0.0107082 0.0182941
0.0558 0.00212842 0.0240531
0.0557 -0.00412215 0.0186226
0.00770001 0.0482064 0.0714402
0.0631222 0.00628807 0.0199702
0.0484667 -0.0115529 0.0104851
0.03965 0.039164 -0.0180037
0.0483 -0.0117179 0.0106482
0.049 -0.00562835 0.0238527
0.0676636 0.02182 0.00500834
0.0483 -0.0117179 0.0108641
0.06095 0.0138187 0.0257464
0.05745 -0.00607767 0.0114324
0.05002 0.0464739 -0.0240465
0.047 0.0423546 -0.0105896
0.055 -0.00705868 0.0134732
0.0501 -0.0100589 -0.00348017
0.0627 0.0208484 0.0239752
0.0391 0.0454373 -0.029032
0.0484667 -0.0115529 0.0109881
0.028 0.0455569 -0.0339402
0.06775 0.0148417 0.00847476
0.0555 -0.00701716 -0.000535121
0.0571714 -0.00673916 0.00301427
0.0636889 0.00282752 0.0144319
0.0651667 0.00189157 0.0019933
0.0466333 -0.00863293 0.0209553
0.054575 -0.00759703 -0.000540761
0.0516 -0.00983902 0.00891188
0.0567167 -0.00711236 0.00545432
0.0602 -0.00502971 0.00193767
0.04855 0.0454889 -0.0182375
0.0589 -0.00558896 0.00731656
0.0144 0.0484269 0.0519988
0.01315 0.0492076 0.0638672
0.04855 -0.0115783 0.0120189
0.0449 -0.00812136 0.0243676
0.0615667 0.0419385 0.00861501
0.04365 0.0464515 0.0269569
0.0669444 0.0107924 0.0114078
0.0486 -0.0115721 0.0123352
0.0271 0.047784 0.0650851
0.0433 -0.0121291 -0.00630497
0.0666222 0.0253545 0.00748387
0.0674556 0.0158418 0.00654463
0.0487333 -0.00671943 -0.00852978
-0.0052 0.0453845 -0.048446
0.06546 0.0188753 0.0189065
0.05645 -0.00762694 0.00596363
0.03395 0.0472571 -0.0335107
0.0677 0.0144263 0.00754417
0.0579 0.00294532 0.0233566
0.0491 -0.0111162 -0.00350095
0.0498 -0.00621608 -0.00864242
0.0595167 0.015301 0.0278874
0.0657125 0.00640413 0.00895419
0.048 -0.0072067 0.0206486
0.0499 0.0477878 -0.0205143
0.0644333 0.0237975 -0.00501598
0.052725 0.00379877 0.031508
0.0659 0.0292683 0.0101749
0.0674 0.0099558 0.00894315
0.0481 -0.011527 -0.00447715
0.06262 0.0168612 0.024
0.0579 -0.00507789 -0.00187308
0.0676 0.0163217 0.0104529
0.0151 0.0496276 0.0615619
0.04696 0.0512971 0.0289445
0.0637333 0.00183808 0.0129866
0.0633 0.0208582 -0.00405272
0.0493 -0.0113765 -0.0031372
0.0629167 0.00040561 0.0100399
0.04948 -0.0110982 -0.0030031
0.0542333 0.000484879 0.0245679
0.0583 -0.00178254 -0.00561553
0.0662429 0.0248404 0.0150159
0.0341 0.0473151 0.0397283
0.05865 -0.00603736 0.00101749
0.0498 -0.0113138 -0.00227029
0.0631333 -0.00110401 0.00153454
0.0599 0.000515814 0.0192981
0.0477 0.0449337 -0.0279702
0.0518 -0.00877829 0.014811
0.04904 -0.00763929 -0.00704468
0.0648 0.000130096 0.00519054
0.0667889 0.0263312 0.00591528
0.0506 0.0475218 0.0539588
0.05006 -0.0111542 -0.0020098
0.0029 0.0480183 0.0714493
0.0632625 0.0323204 -0.00498072
0.048 -0.0104563 -0.00686509
0.0259 0.0453364 -0.0430401
0.0476 0.0123446 -0.0181006
-0.0073 0.048469 0.0710417
0.05165 -0.0110818 0.00495399
0.0425 0.0495315 0.037725
0.0644333 0.0194675 0.0218241
0.0502 -0.0112636 -0.00162583
0.0234 0.045506 -0.0427476
0.0654 0.0055748 0.0114732
0.05575 -0.00481407 0.0170245
0.0409 -0.00402908 -0.0167294
0.0524 -0.00830601 0.0126474
0.04905 0.0455615 -0.0310951
0.05975 -0.00534141 0.00147623
0.0577 -0.00586546 -0.000714837
0.0622444 -0.00261209 0.00793039
0.0475 -0.0105132 0.0199984
0.00590001 0.0482307 0.0724121
0.03325 0.0469407 0.0580207
0.0560833 -0.00815461 0.00648384
0.0561333 -0.00726092 0.00894859
0.0636167 0.0182988 0.0229893
0.0554 -0.00144738 0.0223744
0.0504667 -0.0110896 -0.0014805
0.06366 0.0327778 0.000487398
0.0037 0.048701 0.0768097
0.0062 0.0459172 -0.038656
0.0277 0.0462078 -0.04051
0.0520333 -0.0106194 0.00151446
0.05064 -0.0111243 -0.00102878
0.0565 0.000734336 -0.0097701
0.06626 0.0118312 0.0145013
0.0491 0.047891 0.0469442
0.04805 0.0476862 0.0629681
0.0640667 0.0198003 0.0227644
0.0625333 -0.00214627 0.00552945
0.0182333 0.0493384 0.0765528
0.0586 0.00282437 0.0226782
0.0516 -0.011088 0.00349957
0.04515 0.04584 -0.0234943
0.0564 0.00506619 0.0270315
0.0515333 -0.0110964 0.00548136
0.04325 0.00073689 0.0393715
0.0435 0.0506142 -0.0104958
0.0527 -0.0032753 0.0226088
0.0638 0.0295595 -0.00263566
0.0326667 0.044838 -0.0310092
0.0462 -0.0111027 0.0168558
0.0635333 0.00985568 0.018963
0.06405 0.00120448 -3.37728e-05
0.01775 0.0482868 0.0650056
0.05152 0.0469908 0.0163999
0.0514 -0.0111131 0.00590681
0.052675 -0.00776593 0.0160007
0.0316667 0.0473815 0.0488045
0.0111 0.0481816 0.0559451
0.0425 0.0467764 0.0440389
0.0438 0.00229584 0.0395326
0.05425 0.00388391 -0.0122545
0.0576 -0.00554927 0.0119613
0.0633 -0.000770381 0.00619715
0.0654889 0.005919 0.000931849
0.050675 -0.0110988 0.00700698
0.0654 0.0312225 0.00550047
0.0564 -0.00694242 0.00852641
0.04355 0.00527705 -0.0200296
0.0387167 0.0503802 -0.0445258
0.0632333 0.0293274 0.0199413
0.0604333 -0.00460895 0.00686598
0.0675 0.0142955 0.0104674
0.0500667 -0.0112099 0.00761935
0.0671222 0.0153997 0.0050302
0.0537 -0.00320384 -0.0099961
0.0546 -0.00890181 0.00810669
0.0351 0.0481034 0.0462697
0.0501 -0.00577201 -0.00998994
0.0278 0.0456383 -0.0419271
0.0633 0.00740242 0.0191562
0.049 -0.0084141 0.0189241
0.04925 -0.00059101 0.0328694
0.0625 -0.000504786 0.0119191
0.05095 -0.00403987 0.0249144
0.0659889 0.0233076 0.00197127
0.0627667 0.00128543 0.0165463
0.0443 -0.00569369 0.0298172
0.0631 0.0298312 0.0194325
0.0609 0.0134549 0.0257627
0.0407556 -0.00613832 -0.0165201
0.0671333 0.0208881 0.0124936
0.0496 -0.0113388 0.00804925
0.01715 0.049247 0.0556336
0.0664 0.0263473 0.0104776
0.04595 -0.0110216 0.0164577
0.0525 -0.00664816 0.0180934
0.0664 0.0141658 0.0014405
0.04925 -0.0113828 0.00850775
0.0488 -0.00360051 0.0280929
0.0471 -0.00563672 0.0263196
0.06125 0.042695 0.00404476
0.04895 -0.0114204 0.00896469
-0.00229999 0.0481641 0.0778453
0.0441833 0.0468712 -0.00658584
0.0548 -0.00215986 -0.00806303
0.0475 -0.0105132 0.0190182
0.0557 -0.00839013 0.00442892
0.046 -0.0115691 -0.00568622
0.05965 -0.00383439 0.0124523
0.0669 0.013381 0.00418491
0.0565 0.00696086 0.0284412
0.0489 -0.00906691 -0.00787055
0.0495 0.0378772 -0.0144251
0.0481 -0.0113106 -0.00469356
0.00410001 0.0495181 0.0794645
0.0642667 0.034372 0.00718907
0.06206 0.0153314 0.0244674
0.0485333 -0.0111138 -0.00452786
0.0646 0.0308471 -3.35879e-05
0.0168 0.0501126 0.0569526
0.05344 -0.00319315 0.0214252
0.0500667 -0.00937435 0.0129844
0.0592333 -0.00423465 0.00994922
0.04556 0.0198669 0.0389427
0.0346 0.0468435 -0.0339257
0.0496667 -0.0104797 0.0104897
0.0440667 -0.00570757 0.0294378
0.06155 0.000505189 0.0173304
0.0134 0.0491106 0.0612074
0.0671 0.0159194 0.00503179
0.0505333 -0.00911503 0.0124958
0.0659 0.0306643 0.0147117
0.0511333 -0.0105887 -0.00146937
0.0548 0.00723633 0.0304914
0.0502 -0.00914911 -0.00448057
0.06502 0.0228006 0.0205011
0.0487333 -0.011161 -0.00415979
0.0499 0.0477524 -0.0221409
0.0414 -0.0032348 0.0376089
0.0511 -0.00884796 0.0121026
0.0492 -0.00989232 0.0134302
0.0514 -0.0109045 6.49888e-05
0.03925 0.0473866 0.0455069
0.0594 0.00526399 0.0241635
0.052275 0.00232084 0.0323935
0.0481111 -0.00763079 -0.00902075
0.0397667 0.0397479 -0.0140097
0.0321 0.0483355 0.0479742
0.0574 -0.00394176 0.0158157
0.05165 -0.0107698 0.000480823
0.0608 0.0212117 0.0271008
0.0617333 -0.0036429 0.00448065
0.0594 -0.00555451 5.91208e-05
0.0191 0.0463299 -0.0456051
0.05165 -0.0108737 0.00100096
0.0636714 0.0103514 0.0189801
0.0495 -0.00581054 0.0228692
0.0546 0.0254865 0.0342498
0.0482 -0.00524549 0.0257918
0.0195 0.0464606 -0.0474405
0.0516667 0.0393971 0.0184389
0.0628 0.0383098 0.011964
0.052525 -0.00159959 0.0238558
0.0185 0.0458447 -0.0449731
0.0518 -0.0108552 0.00172625
0.062 0.0423803 0.00189397
0.0495 -0.0076221 0.0193528
-0.00849999 0.0481644 0.0651513
0.0481714 0.0358073 0.0329975
0.0481 0.0475522 0.0469196
0.05155 -0.00984458 0.00850042
0.0411667 0.0513724 -0.00306942
0.059 0.0188327 0.03115
0.0646556 0.0253242 -0.00154164
0.052025 -0.0107241 0.00203257
0.0504 -0.00501429 0.0234858
0.0461 -0.00890336 0.0212961
0.062725 0.0148277 0.0236671
0.044025 -0.00610543 0.0288858
0.06302 0.0319287 -0.00298888
0.0617 0.039962 0.0133329
0.03495 0.0479248 0.0630336
0.0636 0.0293672 -0.00453161
0.05965 -0.00383439 0.00999248
0.06208 -0.00327818 0.00394703
0.06794 0.0227611 0.00551678
0.0509 0.0486212 0.0562955
0.03465 0.045829 -0.0305607
0.0423 0.0498632 0.0350416
0.05215 -0.0107089 0.00244345
0.05962 -0.00372237 0.0109993
0.0105 0.047796 0.0624569
0.0397333 0.0396824 -0.0148801
0.0646833 0.0319659 0.0144211
0.0664111 0.014337 0.00299985
0.051 -0.0099058 0.00970589
0.0521 -0.0108183 0.00347978
0.0654 0.0331549 0.0168311
0.0449 0.0184159 0.0392598
0.0496 -0.00537837 0.0236955
0.0672625 0.0223713 0.00397138
0.00670001 0.0466873 -0.0438478
0.051225 0.0461965 -0.0249684
0.048 -0.0104563 0.0147992
0.0576667 -0.00612655 0.00749235
0.0418 0.0496559 0.0368396
0.0521667 -0.0108101 0.00399414
0.0612 0.0198055 0.0259434
0.045 0.0474784 0.0580098
0.0507 -0.00478733 0.0235122
0.0521333 -0.00957275 0.0089618
0.0522 -0.010806 0.00450958
0.0654556 0.00539503 0.00900716
0.04515 0.0468451 0.0305574
0.0376333 0.0294251 -0.0191289
0.0556 -0.00800259 0.00244671
0.0482 0.0462035 -0.0180911
0.0599 -0.00155901 0.0162801
0.0521 -0.0108183 0.0049287
0.0601 0.0311829 0.0268699
0.0454 0.00387642 0.0360089
0.03616 0.0458077 -0.0389986
0.03745 0.0484747 0.0554964
0.04945 -0.00496083 0.0249076
0.00930001 0.0479311 0.0634974
0.0521 -0.00978337 0.00793003
0.0508 -0.00488687 0.0231709
0.0642 0.0083419 0.0170126
0.0497333 0.0453609 0.022952
0.052075 -0.010718 0.00544766
-0.007 0.0452548 -0.0490466
0.0541 0.00230624 -0.0129502
0.03055 0.0583085 -0.0554615
0.0454333 -0.00859545 0.0224123
0.0501 -0.0102176 0.0105451
0.0596889 -0.00118491 -0.00296711
0.04775 0.0493626 0.0264613
0.05815 0.00491187 0.0254538
0.05512 0.0467977 0.0439351
0.0517 -0.0108675 0.00567888
0.0665286 0.0263754 0.00798777
0.04895 -0.0106701 0.0130383
0.0675 0.0163442 0.0120039
0.05405 -0.00754237 0.0139273
0.0617667 0.0227951 0.0256646
0.0590333 0.0239092 0.0308195
0.06595 0.0134023 0.0179931
0.0516 -0.0108105 0.00603226
0.0383 0.0451991 -0.0255503
0.04895 -0.00863313 -0.00754468
0.0491 -0.011102 0.00952785
0.0567 0.0124039 0.0320345
0.0639 0.0278183 0.0189616
0.0534667 0.00293451 0.028863
0.0487 -0.0111294 0.0104942
0.06105 -0.00469726 0.00498462
0.0202 0.0484475 0.0675114
0.03605 0.0481573 0.0604153
0.05555 -0.0061183 -0.00302028
0.033 0.0478065 0.061936
0.0653 0.00725337 -0.000297016
0.0489 -0.00992501 0.0145472
-0.00649999 0.0451009 -0.0499147
0.0559 0.000145493 -0.00984031
0.0431333 0.0078471 0.0390007
0.0417 0.0483947 -0.0159771
0.0638 -0.000765359 0.00436238
0.0230667 0.0489404 0.0639684
0.0494 -0.0100839 -0.00441382
0.0095 0.0457067 -0.047229
0.0246 0.0461247 -0.0292639
0.05505 0.0455564 -0.026043
0.04865 -0.0111354 0.0109302
0.0139 0.0483228 0.0562146
0.054125 -0.0096593 0.0050174
0.04875 -0.0111233 0.0119926
0.04565 0.0488475 -0.015011
0.0526 -0.0102767 0.00198509
0.0451 -0.00866303 0.0229756
0.0169 0.0500719 0.0574861
0.0494 0.0398391 -0.0109742
0.0498 0.0307423 0.0360687
0.0444 0.00309195 0.0383406
0.0543 0.00196453 -0.0111375
0.0505 0.0374586 0.0268317
0.0595125 0.028356 0.0285125
0.0487667 -0.0110854 0.0123843
0.058 -5.12348e-05 0.0218799
0.06366 0.0316989 0.0199741
0.06628 0.0234243 0.0156084
0.0494 -0.0109373 -0.00334708
0.0522 -0.00832497 0.0154675
0.0546333 -0.00930038 0.00549031
0.03 0.050183 0.0472241
0.0055 0.0493247 0.077379
0.06248 0.0403672 0.00951262
0.0538 -0.00181306 -0.0110333
0.0612 0.0427916 0.00453442
0.04245 0.0458815 -0.0255413
0.0547 0.0022231 0.0265099
0.0632667 0.0172985 0.0230646
0.04455 0.00387372 0.0399662
0.0498 -0.010889 -0.00269509
0.0393 0.0471259 0.0384889
0.0061 0.0465822 -0.0410497
0.0404 0.0470802 0.0440492
0.04905 -0.00251985 0.0295151
0.0592 0.0388596 -0.00155808
0.057425 -0.00612814 0.0055537
0.05005 -0.010753 -0.00258165
0.0668 0.0208458 0.0146364
0.05355 -0.00941841 0.000979437
0.0514667 -0.0030435 0.0253606
0.0064 0.0493092 0.0787488
0.0658 0.0102625 0.015081
0.0551667 -0.00518046 0.0175751
0.0426 0.000283064 0.0384891
0.0503 -0.0108286 -0.0022577
0.0311 0.0486554 0.0663694
0.0438 0.00265829 0.0397139
0.0543 0.000417338 -0.0121129
0.0487333 0.0379115 -0.0116818
0.0648 0.0293486 -0.000608898
0.06016 0.0323251 0.0249885
0.039 0.0459185 -0.0255329
0.0322 0.0446101 -0.0294943
0.050625 -0.0106842 -0.00203906
0.0642333 0.0233252 -0.00404798
0.05615 0.00972127 0.0319992
0.051575 -0.00874876 0.0144322
0.053075 -0.0101867 0.00303177
0.065225 0.0208849 0.0194459
0.03875 0.0503635 -0.0434383
0.029525 0.0497493 0.0465175
0.0569667 -0.00363661 0.0169415
0.0519 -0.0106355 0.00587348
0.067 0.00889322 0.00400723
0.0478 -0.00526834 0.0261213
-0.00569999 0.0482856 0.0738726
0.0514 -0.00506264 0.0217632
0.0508 -0.0107683 -0.00161497
0.0633 0.00922361 0.0191412
0.0537667 -0.00411523 -0.00755163
0.05654 -0.00370767 0.0179851
0.0511 -0.010732 -0.0010863
0.0656 0.00433347 0.00653691
0.0675 0.0189051 0.009443
0.05065 -0.00752519 0.0184757
0.00910001 0.0476962 0.0600497
0.03905 0.0481938 0.057483
0.05912 -0.00359317 0.0140009
-0.00639999 0.0485176 0.0666432
0.0513 -0.0107079 -0.000770426
0.0232 0.0505348 0.0583947
0.0541333 -0.00706339 -0.00310479
0.0271 0.0453913 -0.0435179
0.0526333 -0.010067 0.000955616
0.0169667 0.0499482 0.0584206
0.0601667 0.0360447 -0.00407736
0.0412 -0.0028536 -0.0183073
0.0512 -0.00988354 -0.00265326
0.0512 -0.00800157 -0.00537166
0.0185 0.0484196 0.0688984
0.0372 0.0454459 -0.0420456
0.0580667 0.00586559 0.0263641
0.05165 -0.0106656 -3.92776e-05
0.066475 0.0223105 0.015485
0.05712 0.00642768 0.0274624
0.0526 -0.00993353 0.00685587
0.0537333 -0.00872135 0.000334081
0.0591667 0.0138448 0.0275646
0.0177 0.0454266 -0.0475733
0.0524667 -0.010567 0.00294988
0.0451714 0.0193361 0.0389882
0.06375 0.0309256 -0.00200895
0.0541 -0.00834709 0.0095701
0.047075 0.0112111 -0.0175469
0.0551 -0.00864977 0.00795938
0.0391 0.0283303 -0.0226169
0.04645 -0.00754841 0.0219878
0.06545 0.00548323 0.0109389
0.0665889 0.0248474 0.0119819
0.0583 -0.00452408 -0.0045093
0.0527 -0.0105389 0.0044839
0.0420333 0.0113196 0.0424425
0.06406 0.0153671 0.0224803
0.0664571 0.0173215 0.0165309
0.0530667 -0.0102218 0.00340745
0.0492 -0.0058298 0.0231589
0.02695 0.0482467 0.0700966
0.05145 -0.00943868 0.0103867
0.0361667 0.0482662 0.0694351
0.053 -0.00456147 -0.00946271
0.0645 0.0238477 0.0209989
0.05195 -0.0104221 -3.91441e-05
0.0525667 -0.010555 0.00500556
0.0500667 0.0378518 0.0270322
0.0492 -0.0107476 0.0104367
0.0448 -0.00902662 0.0231602
0.0413 0.0468872 0.0458592
0.0562 -0.00153236 0.0218669
0.0515667 -0.0106065 0.00645097
0.02665 0.0454386 -0.0360842
0.062 0.00500228 0.0223739
0.0181 0.0484356 0.0648196
0.0534 -0.0090269 6.35218e-05
0.05565 0.0143479 0.0334315
0.0161 0.0501056 0.0610691
0.06225 -0.00128444 0.00907409
0.0542667 -0.00934033 0.00349487
0.05025 -0.0108347 0.00799131
0.050125 -0.000585341 0.0309652
0.0609 -0.0045198 0.00359707
0.0102 0.0445445 -0.0527831
0.0501667 -0.0107038 0.00838648
0.0435 0.00834757 0.0380198
0.0512 -0.00570139 -0.0091356
0.0532 -0.00720816 0.0160067
0.0393 0.052817 -0.0454551
0.0595 -0.00535805 0.00299727
0.0672778 0.016908 0.00604695
0.06472 0.00268286 0.00700423
0.0498 -0.010889 0.00856234
0.0616875 0.0433107 0.00648868
0.06115 0.0396857 0.00237874
0.0072 0.0480758 0.0710847
0.04895 -0.0109916 0.0100367
0.045 0.00385546 0.0375407
0.0590667 -0.00201998 0.0168942
0.02255 0.0450081 -0.0266032
0.033 0.0450349 -0.0320471
0.0603 -0.00436641 0.00756561
0.0639 -0.00309397 0.0735284
0.0446667 0.0478696 -0.00554242
0.0633 0.0151237 0.0231749
0.0105 0.048101 0.0577303
0.06065 -0.00268912 0.0129746
0.0472 0.0491106 -0.0163214
0.0633 0.00880218 0.0190208
0.0106 0.0477591 0.0614946
0.0475 -0.0109488 -0.0058133
0.04125 -0.00273587 0.037511
0.0666778 0.0298245 0.0159385
0.0415 0.0488797 -0.0161642
0.0676 0.0173446 0.00994143
0.05025 -0.00998927 0.0109501
0.04592 0.00893581 -0.0165909
0.0329667 0.0449649 -0.0305868
0.0477 -0.0109251 -0.00558338
0.000650004 0.0465093 -0.0469864
0.0526 -0.00540569 0.0198219
0.0228 0.048776 0.0639763
0.0505 0.0479964 0.0563375
0.0487 -0.00869992 0.0191155
0.048175 -0.0107069 -0.00550049
0.03845 0.0503933 -0.0485888
0.0582 -0.00409621 -0.00504453
0.0449 0.00344902 0.0373189
0.0181 0.0481486 0.0684078
0.0481 -0.0108778 -0.00501828
0.0658 0.0288885 0.00997894
0.0574333 0.0444079 -0.00259661
0.06355 0.00184245 0.00995748
-0.00479999 0.0483283 0.0783603
0.0061 0.0487893 0.074196
0.0138 0.0480639 0.0699293
0.0537 -0.00960529 0.00656636
0.0624667 0.0277032 0.0225139
0.0634667 0.0373182 0.00642395
0.0560556 -0.00815728 0.00698018
0.00740001 0.0483157 0.0719144
0.0642333 0.0344168 0.00793561
0.0589 0.021816 0.0304246
0.0106 0.0480638 0.0649988
0.06465 0.0319209 0.0139248
0.06448 0.00745737 0.0159539
0.0536 -0.00866703 0.00942235
0.05916 -0.00168767 0.0170399
0.0450667 -0.00907583 0.0224992
0.05165 -0.00556842 0.0204536
0.0625667 -4.83815e-05 0.0139148
0.0651 0.00665548 -0.000826938
0.0518 -0.00940137 0.00982635
0.0143 0.0452095 -0.0499318
0.0485833 0.0358927 0.0320346
0.0671 0.0104261 0.0105251
0.05404 -0.00272586 -0.00856
0.0055 0.0458407 -0.0388582
0.0491 -0.0106739 -0.00404328
0.0546 -0.00922371 0.0044466
0.052775 -0.00919478 -0.00106574
0.0496 -0.00867799 -0.00600075
0.0356 0.0456615 -0.0300393
0.0606714 -0.00421274 0.00189959
0.06325 0.0395324 0.00448429
0.0676778 0.0157933 0.0104417
0.049575 -0.0105436 -0.00350051
0.0498 -0.0106766 -0.0031199
0.044 0.0492216 -0.00558114
0.0672625 0.017404 0.013906
0.05058 -0.00961571 -0.00347214
0.0635 0.0303964 0.0180704
0.0501 0.0486343 0.0576478
0.0549 -0.00806896 0.0010644
0.0511 -0.0091622 0.0115791
0.0501 -0.0105 -0.00296847
0.0538 -0.00979714 0.00391994
0.0441667 0.00640935 0.0385846
0.0628 0.00722343 0.0216898
0.0476 -0.00560627 0.0258515
0.063225 0.00939831 0.0239207
0.0169 0.0489124 0.0537177
0.042 -0.000984319 0.0394185
0.051 -0.0105345 -0.00182092
0.0632333 0.0068213 0.0199413
0.0503 -0.0101949 -0.00310261
0.06445 0.0237033 0.0214042
0.0494571 0.036829 0.0340279
0.0521 -0.0104043 0.000478452
0.0054 0.0484105 0.073633
0.0463 -0.00969343 0.0175733
0.0669 0.00903455 0.0113716
0.04448 0.00290931 0.0379486
0.0409 -0.00356235 -0.0183629
0.0599 0.0212641 0.0287291
0.0381 0.0460078 -0.0235609
0.04475 -0.00835847 0.024406
0.0617 0.0331398 0.0221833
0.05715 0.0148731 0.0309837
0.0587 0.00416102 0.0236076
0.0654 0.00188575 0.00444645
0.0376 0.0459924 -0.0380239
0.0664 0.0178054 0.0168655
0.0541333 -0.00706331 0.0150258
0.0464 0.0105212 -0.018005
0.0425 0.0456284 -0.0345972
0.0587667 0.0142959 0.0281792
0.0536667 -0.00222257 0.0229685
0.05355 -0.00982555 0.00586532
0.0460333 0.0468513 -0.0132075
0.0484 -0.00771462 -0.00834515
0.0577 -0.00605926 0.00800638
0.0386 0.0481699 0.0600077
0.0558 0.0163052 0.0331738
0.0596 0.0198292 0.0299727
0.053 -0.0064053 0.0180923
0.06328 0.000746955 0.0114018
0.0630222 0.00883409 0.0214461
0.0475 -0.0075363 -0.0104602
0.04955 0.0456303 -0.0314565
0.00320001 0.0492017 0.0793465
0.0368 0.0470808 0.0520813
0.06425 0.00227157 0.00710153
0.0389 0.0473131 -0.0430168
0.0522 -0.0103925 0.000994792
0.0569 -0.00357425 0.0172812
0.0602 0.0326472 0.025239
0.03565 0.0548543 -0.0435396
0.0657 0.00681212 0.00344877
0.0449 -0.00901714 0.0229119
0.0523 -0.0103807 0.00140669
0.04865 0.0383405 -0.0115491
0.0481 0.0456046 -0.0330429
0.0557333 0.0148298 0.0332001
0.065 0.01002 0.0168331
0.0459 0.0475826 0.0401765
0.0536 -0.0100233 0.00443768
0.0583 -0.00235971 0.0180482
0.05265 -0.0103393 0.00242949
0.0516 -0.00525938 -0.00971894
0.0495 -0.00261387 0.0288363
0.0549875 0.0474165 0.0414763
0.0630125 0.020823 -0.00504244
0.0603 0.0326063 0.023706
0.058 -0.00555452 0.0104874
0.0484333 0.0383236 -0.0136608
0.0444 0.00354219 0.0392411
0.052125 -0.0101428 -0.000608019
0.0532 -0.00429555 -0.00959425
0.0244 0.049199 0.0577947
0.0528 -0.0103215 0.00273338
0.017025 0.0498763 0.0564143
0.00210001 0.0482984 0.0648845
0.048075 -0.0101774 0.0204151
0.0293 0.0468529 0.04961
0.0664778 0.0138046 0.00299711
0.0154 0.0480414 0.0705098
0.0426333 0.0014676 0.0366033
0.028 0.0460844 -0.0257643
0.0473 -0.00769812 -0.0106283
0.0485 0.0479917 0.0570578
0.049225 0.0367631 0.0334128
0.048025 0.0504336 -0.0170156
0.0531 -0.010286 0.00384946
0.0493 -0.00977464 -0.00505943
0.0614571 0.042913 0.00391524
0.0603 0.0187181 0.0269903
0.05905 -0.00529275 -0.000607741
0.05315 -0.01028 0.00446085
0.06114 0.017815 0.0254247
0.0548 -0.00888097 0.00387447
0.0506 0.046806 0.0150546
0.0667111 0.0128978 0.0135152
0.0472 -0.0074879 -0.0112953
0.0634667 0.0248228 0.0224938
0.0374 0.055988 -0.0425679
0.0536833 -0.00320448 -0.0105062
0.04115 -0.00157485 0.0365016
0.053 -0.0102978 0.00498083
0.0640333 0.0248179 0.0214328
0.064525 0.0188144 0.0210497
0.0388 0.0502196 -0.0430594
0.060975 -0.00467844 0.00543133
0.048275 0.0488656 0.0239348
0.053925 0.0413965 0.0190147
0.0527 -0.0103334 0.0055119
0.061 -0.00246776 -3.5068e-05
0.0592 -0.00385587 0.0131878
0.0630286 0.0323445 -0.00154896
0.0556 -0.00867847 0.00697819
0.0525 -0.010357 0.00583348
0.052 -0.0104162 0.00628126
0.0256 0.0478801 0.0569254
0.049625 -0.00968666 -0.00456245
0.0486 0.047939 0.0474175
0.05575 -0.00818676 0.0039304
0.0674 0.0179909 0.005353
0.0581333 -0.00602736 0.00295184
0.05255 -0.00952735 0.00840431
0.0609 0.0257484 0.0268803
0.044 0.0517083 0.0317191
0.051 -0.0105345 0.00740053
0.0624 -0.00242402 0.0064526
0.0538 0.00177301 0.0280752
0.05065 -0.010576 0.0079557
0.0619333 0.0119003 0.0239555
0.05245 -0.0080951 -0.00354372
-0.00355 0.0452068 -0.0504307
0.0524 0.0478026 0.0186296
0.05895 -0.00415414 -0.00213536
-0.00759999 0.047525 0.062671
0.050075 -0.0105912 0.00901267
0.0592667 -0.000240555 -0.00507389
0.0636333 -4.77151e-05 0.000955005
0.05225 -0.0101799 -3.90112e-05
0.05744 0.0138684 0.0299615
0.0229 0.0454254 -0.0487217
0.0544 -0.00610065 0.0167933
0.0535 -0.0100349 0.00393343
0.0640667 0.0318402 -3.9575e-06
0.0497 -0.0106884 0.00952883
0.06002 -0.00118014 0.0164441
0.0428 0.0457169 -0.0376952
-0.00549999 0.0485619 0.0696597
0.05525 0.0457484 -0.0276781
0.0571143 -0.00671608 0.010461
0.053625 -0.00813905 -0.000597875
0.0377 0.0317346 -0.0196786
0.0511 -0.0103134 -0.00213301
0.0639667 0.0322402 0.00041386
0.0434 0.0454347 -0.0284772
-0.0081 0.0487322 0.0677658
0.0495 -0.0107121 0.00986948
0.00840001 0.048881 0.0747809
0.0471667 -0.0102597 0.0183579
0.00225001 0.0482459 0.0810329
0.04895 -0.01067 0.0125024
0.0668 0.0233969 0.0121198
0.04865 -0.0100599 -0.00681659
0.0493 -0.0107358 0.0101049
0.0018 0.0480781 0.068931
0.0633 0.0427577 0.0128799
0.0529 -0.00969433 0.00744765
0.049025 -0.0107149 0.0110459
0.0588 -0.00234527 0.0166949
-0.000100002 0.0467596 -0.0441051
0.0567 -0.0065252 6.11012e-05
-0.00824999 0.0463378 -0.0454489
0.058 0.015879 0.030376
0.0231333 0.0453349 -0.0340388
0.0599 0.00655168 0.0247681
0.05725 -0.00628726 0.00951139
0.0639833 0.0263558 0.0204625
0.047 0.0472454 0.0529562
0.0369 0.0460641 -0.0387694
0.05845 -0.00513994 0.00994963
0.0490333 -0.0106246 0.0114912
0.0587 -0.00476048 0.0100531
0.0488 -0.0107949 0.0116639
0.0454 0.0473899 0.0548697
0.048125 -0.00665619 -0.0105336
0.0279 0.0473134 0.0668678
0.05012 0.0459144 0.0238554
0.06354 0.0389509 0.00495353
0.00565001 0.0464224 -0.0440349
0.0475667 -0.00361297 0.0294524
0.0540375 -0.00615174 -0.00497234
0.0617667 0.0402963 0.0131374
0.0425667 0.0119462 0.0399553
0.06145 0.0298237 0.0224391
0.0564 -0.00556439 -0.0034822
0.0535 -0.00704746 0.0159515
0.0509 0.0276398 0.0357337
0.0575286 0.011351 0.0299404
0.0514 0.0496002 0.0504508
0.066 0.00888428 0.0138641
0.05115 -0.0103076 0.00749273
0.0473 0.0508768 0.0244438
0.0464 -0.011079 0.0170403
0.03724 0.0477995 0.0520045
0.0664 0.0119127 0.00196044
0.0029 0.0489868 0.0811347
0.0624 0.0401529 0.0117519
0.0634875 0.000875457 0.0130511
0.0432667 0.0508125 -0.00964808
0.06405 -0.000494752 0.00345383
0.0482 -0.0106498 -0.00598548
0.027175 0.0457595 -0.0409651
0.056675 0.00583427 0.0274331
-0.00669999 0.0461988 -0.0451465
0.0186 0.0462358 -0.040791
0.0674111 0.0103816 0.0079162
0.06168 -0.00366386 0.00544272
0.0595889 -0.00213315 -0.0029708
0.0622667 0.0398864 0.0125043
0.0375 0.0488131 0.0549865
0.0578 0.00575561 0.0265788
0.0485 -0.010615 -0.00499645
0.0628 0.0173129 0.0236896
0.0378 0.0333882 -0.0203813
0.06202 0.0283036 0.0229741
0.0494 -0.0105106 0.0109471
0.04615 0.0517656 0.0305668
0.0626 -0.000139668 0.0134531
0.0519 0.0468307 -0.0244156
0.05412 -0.00911386 0.00200444
0.0479 -0.00504575 0.0263098
0.0489 -0.0105686 -0.00443817
0.056 -0.00756905 0.00846831
0.0597 0.00656804 0.025019
0.0514 -0.0102786 -0.00181274
0.06355 0.0391978 0.00446677
0.0418 0.000632372 0.0352209
0.0642 0.0244065 -0.0035143
0.0516 -0.00796553 -0.0051393
0.0171 0.0487363 0.0639526
0.0494 -0.00667034 0.020761
0.04864 0.0473587 0.0594874
0.0515 -0.00370238 0.0244479
0.0615 0.011874 0.0245507
0.0499 0.0461965 0.0208586
0.0649143 0.0338759 0.0119521
0.0564 -0.00694242 0.0114793
0.0659 0.0311877 0.0161076
0.0666889 0.0108302 0.0124835
0.04292 0.0439231 -0.0174857
-0.0009 0.048022 0.0609876
0.055 -0.0084598 0.00836908
0.0515 -0.010267 -0.00160229
0.0496333 0.0469008 0.0210622
0.036175 0.0482215 0.0698776
0.0560333 -0.00730255 0.00091843
0.05958 0.01135 0.0270639
0.0596333 -0.00320449 0.0140003
0.0520667 -0.0100633 -0.00103983
0.04905 -0.00958747 -0.00603714
0.05145 -0.0086046 0.0124719
-0.000599995 0.0462643 -0.0462491
0.0634 0.0320596 0.0207998
0.06364 0.0363826 0.00541435
0.051525 -0.00911814 -0.00306041
-0.0078 0.0482854 0.0763295
0.043525 0.0502603 -0.00594944
0.0478 -0.00939351 0.0187394
0.0454857 0.047315 0.0439779
0.0628 0.00231506 0.017145
0.00975 0.048993 0.0775409
0.0391 0.0544267 -0.0453868
0.0655143 0.0223546 0.0189729
0.0582 -0.00582983 0.00757233
0.01875 0.0450366 -0.05002
0.0523 -0.0101741 0.000270846
0.0485 -0.00863275 0.0195453
0.0526 -0.010016 0.000516845
0.0648 0.019432 -0.0013615
0.0476333 0.0474311 0.039944
0.0640875 0.00636549 0.0154515
0.023525 0.0494342 0.0639919
0.0469 0.0109035 -0.0195531
0.0419 0.00779296 0.0414223
0.0659444 0.0248911 0.0159236
0.0530333 -0.010089 0.0025212
0.06372 0.000814437 -5.18516e-05
0.06658 0.0102238 0.00295838
0.0464 -0.0104178 0.016379
0.0421333 -0.000637333 0.03948
0.05912 -0.00416459 0.0114488
0.0534 -0.0100465 0.00353028
0.0622 -0.00041502 -0.00195818
0.0192333 0.045331 -0.0435169
0.04616 0.045374 -0.00894681
0.04405 -0.00593451 0.0293301
0.0664778 0.0164015 0.00195832
0.06476 0.0324472 0.00452006
0.0578 0.0136918 0.0290952
0.0533 -0.00781235 0.011905
0.00805 0.0487003 0.079485
0.0583 0.00649016 0.024878
0.0477333 -0.00867612 0.0203464
0.06065 -0.000236434 0.0169686
0.0535 -0.0100349 0.0049522
0.014 0.0482845 0.0730823
0.062975 0.00342072 0.0174464
0.054 -0.00825568 0.00998602
0.05274 0.00232907 0.0304342
0.05565 -0.00760059 0.00949679
0.0637 0.00138965 0.0144299
0.05325 -0.0100639 0.00547712
0.0506 -0.00995032 0.0104865
0.0501 0.0386845 -0.0147529
0.0674 0.0108533 0.00616506
0.0597 0.0169681 0.0299354
0.0677 0.0139156 0.00890619
0.0463 -0.00965666 0.0170585
0.02155 0.0490173 0.0635428
0.0664375 0.0153928 0.00250073
0.04995 -0.0104468 0.00992648
0.0504 -0.00111094 0.0298155
0.05295 -0.0100987 0.00590603
0.03405 0.0454661 -0.0449556
0.0637333 0.00183808 0.0144235
0.0647667 0.000720663 0.0024173
0.01505 0.0487648 0.0534951
0.0573 0.00686171 0.0275195
0.05705 0.0123517 0.0314117
0.03595 0.0455085 -0.0394941
0.0526 -0.0101393 0.00634146
0.0507 0.0274915 0.0360242
0.0523 -0.0101741 0.00667288
0.06015 -0.00503292 0.00250298
0.04565 0.0474868 0.0559468
0.0590333 -0.00557977 0.00692329
0.0516 -0.0102554 0.00703851
0.0566 -0.000444893 0.0222534
0.045025 -0.0082226 0.0238883
0.0599556 0.0187989 0.0294632
0.0511 -0.0102088 0.00791546
0.0604 0.0329403 0.0238637
0.0515 -0.00714094 0.0185085
0.0565 0.0463911 -0.0259722
0.0355 0.0480018 0.0600376
0.0476 -0.00723804 0.0210648
0.05065 -0.0103131 0.00853428
0.059975 0.0288054 0.0294324
0.0231 0.0456231 -0.0270292
0.0427 0.00784397 0.0395951
0.0540833 0.00581346 0.0315235
0.0654 0.0118989 -0.00135063
0.047575 0.0472796 0.0529551
0.04875 -0.010586 0.0139265
0.0671556 0.0177941 0.0144625
0.0669 0.0113498 0.0118278
0.0349 0.0457202 -0.0285081
0.0566 -0.00751499 0.00349803
0.06275 0.0349694 0.000329587
0.0524 -0.00995626 -0.000451449
0.0539833 0.00237686 0.0279143
0.063 0.02715 0.0219964
0.0511 0.0455812 0.0161846
0.0581333 -0.00583458 0.00796415
0.0485 -0.010615 0.0142878
0.0672667 0.00928892 0.00604789
0.0578 0.00323926 0.0236753
0.0473 -0.0107542 0.0151301
0.05245 -0.00861057 -0.00240975
0.0507 0.046312 -0.0285332
0.058125 -0.00453384 0.0129295
0.0463 -0.010622 0.0174722
0.0638 0.00183648 0.00804083
0.047 -0.00531405 0.0265669
0.052 -5.49837e-05 0.0289724
0.0486 -0.009312 0.0207291
0.0499 0.0453478 0.0209647
0.0641714 0.000258613 0.00145852
0.0604 0.0193507 0.0278937
0.04805 -0.0104506 -0.00653664
0.0524 -0.00108614 0.0248181
0.0634 0.0207859 0.0233251
0.0531 -0.00982566 0.00144508
0.00830001 0.0479877 0.0574705
0.0492 -0.0102488 -0.00456618
0.0588 -0.00425738 -0.00223497
0.06065 0.0233073 0.0274324
0.0632667 0.0298869 0.0186074
0.0497 -0.00569149 -0.0104593
0.0675667 0.0203374 0.00841088
0.058975 0.00982328 0.0269622
0.0545 -0.00897943 0.00301565
0.0652 0.0314824 0.0149387
0.0509 0.0377109 0.0254529
0.04955 -0.0101738 -0.00408708
0.05975 0.0379336 -0.00116953
0.0382 0.0284631 -0.0195824
0.0609 -0.0050786 0.00499407
0.04495 0.0188538 0.038008
0.0570111 -0.00669643 0.00396937
0.0207 0.0465597 -0.0400854
0.0561 -0.00578192 -0.00329713
0.0527 -0.00786641 0.0156878
0.04955 0.0477602 0.0580003
0.04975 -0.0102575 -0.003653
0.0482 -0.00697486 0.021036
0.0511 -0.00958066 -0.00297026
0.054525 0.0018587 0.0265308
0.05455 0.00135499 0.0259194
0.0541 -0.00167195 -0.010051
0.06314 0.0103771 0.0204722
0.04945 -0.00815926 -0.00643711
0.03904 0.0292744 -0.0230343
0.0656111 0.00941266 0.0149443
0.051 -0.0101154 -0.00255457
0.0266 0.0455923 -0.0389041
0.0537 -0.00940207 0.00748085
