ply
format ascii 1.0
comment Created by Open3D
element vertex 1599
property float x
property float y
property float z
end_header
0.036011 0.0183028 0.0648272
0.0492289 0.0137654 0.044333
0.00363416 0.059691 0.0600055
0.0489509 0.013721 0.0453002
0.0404851 0.0137218 0.0603378
0.0402124 0.0135341 0.0605501
0.061552 0.0453761 0.00378882
0.0392212 0.0137288 0.0620669
0.0385352 0.0137694 0.0628106
0.0298492 0.0453886 -0.0399002
-0.00444711 0.0481073 0.0768027
0.0448414 0.0282507 0.0527895
0.00489394 0.0477512 0.0643235
0.0341184 0.014223 0.0655051
0.0481179 0.0162785 0.0493174
0.0335524 0.014278 0.0658855
0.0495227 0.0262063 0.0373242
0.037543 0.0186946 0.0633736
0.0415515 0.013785 0.0593307
0.0388469 0.0452085 0.0482653
0.0330162 0.0142697 0.0663286
0.0486622 0.0457056 -0.0309854
0.0393771 0.0212631 0.0615969
-0.0144451 0.0483614 0.0739195
0.0319109 0.0142388 0.0671288
0.0282942 0.034626 0.064593
0.0412646 0.0175912 0.0163276
0.0201906 0.0459628 -0.0425712
0.0615915 0.0460733 -0.00157961
0.0412335 0.0177238 0.0167815
0.0409205 0.0174447 0.0185236
0.0408083 0.0174447 0.0187179
0.0500745 0.0142701 0.0393351
0.0499304 0.0142536 0.0397624
0.0498541 0.0142237 0.0402169
0.0497341 0.0142206 0.0404581
0.0433477 0.0296415 0.0557196
0.0489866 0.013703 0.0473361
0.0487161 0.0136727 0.0478962
0.036342 0.033208 0.0194538
0.0453679 0.0233174 0.0522205
0.0480857 0.0136906 0.0488586
0.0478357 0.0137542 0.0492461
0.0449214 0.0297284 0.0522605
0.0437904 0.0333312 0.0525529
0.0384936 0.026297 0.0143272
0.0468767 0.0136829 0.0512072
0.0488585 0.0267793 0.0393079
0.0318987 0.0454963 0.0109498
0.0467463 0.0136829 0.0514329
0.0465291 0.0136829 0.0518092
0.0461476 0.0136891 0.0524033
0.0458623 0.0137015 0.0527641
0.041348 0.0347189 0.0557832
0.0416224 0.0392407 0.0237079
0.0455578 0.0137015 0.0532916
0.0475361 0.0452442 -0.0181349
0.0453881 0.013685 0.0537632
0.0318499 0.0452203 0.00503431
0.0445154 0.0137092 0.055247
0.0441182 0.0136857 0.0554851
0.049319 0.0152694 0.0428055
0.025912 0.0462921 0.000719028
0.0435238 0.0138138 0.0558718
0.0435553 0.0453889 -0.02804
0.0432244 0.0137342 0.0560332
0.0430313 0.013825 0.0563343
0.0447224 0.0387947 0.0389386
0.0428498 0.0138742 0.0567486
0.0378542 0.0273916 0.0168345
0.0427445 0.0137019 0.0568977
0.0426767 0.0137489 0.0577706
0.0420655 0.013749 0.0588293
0.0407332 0.0349 0.056448
0.040477 0.018649 0.0600918
0.0418434 0.0136697 0.0591252
0.041012 0.0137373 0.0598318
0.0350182 0.0142948 0.0651467
0.0408794 0.0183163 0.0176947
0.0434369 0.0402093 0.0468317
0.0269213 0.0152216 0.067771
0.0265472 0.0152846 0.0682989
0.0262699 0.0151932 0.0684991
0.0338973 0.046479 0.00988821
0.0413628 0.0178082 0.0162576
0.00870219 0.0242852 0.0689273
0.0464247 0.0453913 -0.0262099
0.0413598 0.0178839 0.0166628
0.0193931 0.0482064 -0.0181898
0.0495641 0.0142549 0.0413525
0.0495372 0.0142677 0.041839
-0.000217985 0.0481193 0.0649776
0.0141502 0.0457457 -0.0111089
0.0495234 0.0142636 0.0422896
-0.00363081 0.0484178 0.0706887
0.0494972 0.0142156 0.0428461
0.0451724 0.013748 0.0543924
0.0369888 0.045481 0.0263335
0.0449834 0.0138022 0.0548365
0.0428043 0.0138444 0.0574607
0.0290511 0.045914 -0.027318
0.0412592 0.0139004 0.059537
0.0357177 0.0287264 0.0185352
0.0374579 0.0142216 0.0638709
0.0476411 0.0186857 0.0487943
0.00269563 0.0471505 0.0743311
-0.0249508 0.0485869 0.072716
0.0370013 0.0142631 0.0642548
0.0366958 0.0141803 0.064441
0.0393653 0.0331418 0.0586172
0.0398003 0.0340882 0.0576639
0.0329869 0.0147199 0.0663507
0.0382174 0.0263346 0.0154055
0.0322301 0.0145729 0.0669758
0.0284484 0.0151291 0.067526
0.0275555 0.0153557 0.0676726
0.0416016 0.0182449 0.0160107
0.0414655 0.0181946 0.0162996
0.0327336 0.0222897 0.0665038
0.0514037 0.0144763 0.0367663
0.0504791 0.0146991 0.0379343
0.0493514 0.0142365 0.0438207
0.0380909 0.046235 0.0239246
0.0492662 0.0143157 0.0440685
0.0325495 0.0316904 0.0638726
0.0483539 0.0138567 0.0486486
0.0409761 0.0141826 0.0598272
0.0387035 0.0252337 0.0158636
0.0397922 0.0140445 0.0614779
0.0395127 0.0142087 0.0619019
0.0264764 0.0156367 0.0682748
0.0516078 0.0147439 0.0364627
0.0512222 0.0147678 0.0368806
0.0450506 0.0222535 0.0528367
0.0264656 0.0163402 0.0677602
0.0497279 0.014747 0.0400021
0.0488982 0.0142294 0.0478057
0.0487448 0.0140305 0.0479713
0.0484062 0.0142332 0.0487079
0.0479691 0.0142255 0.0492752
0.0471675 0.0142235 0.0505036
0.0470505 0.0142043 0.0509062
0.0405544 0.0454717 -0.0335422
0.0497122 0.0171699 0.0423626
0.0468767 0.0142043 0.0512072
0.061203 0.0449025 0.00579319
0.0463553 0.0142043 0.0521102
0.0458623 0.0142235 0.0527641
0.0455578 0.0142235 0.0532916
0.0451093 0.0141937 0.0543795
0.0496032 0.0162178 0.0413133
0.0445557 0.0142095 0.0553364
0.0442526 0.0140495 0.0555522
0.0483415 0.021077 0.0458201
0.0434645 0.0143005 0.0563173
0.0286608 0.0339178 0.064308
0.0356895 0.0462521 0.029264
0.0431623 0.0141446 0.0564406
0.0430508 0.014276 0.0568588
0.0428917 0.0143031 0.0573094
0.0427861 0.0141256 0.0572923
0.0389441 0.0245937 0.0168469
0.0447678 0.0218827 0.0534598
0.0355559 0.0147623 0.0650155
0.0412646 0.0184964 0.0163276
-0.00193542 0.0483572 0.0697023
0.0372333 0.0423447 0.0573101
0.0425129 0.0423367 0.0463655
0.0493481 0.0146897 0.0437265
0.0407806 0.0351365 0.0189659
0.0434836 0.0568956 -0.0352492
0.0448717 0.0327212 0.05123
0.0417169 0.0144074 0.0589442
0.0292866 0.0456824 -0.0281258
0.0412468 0.0317247 0.0569584
0.0377248 0.0147685 0.0635088
0.0369951 0.0147699 0.0643003
0.0330639 0.0152331 0.0663539
0.0320242 0.0151474 0.0671324
0.0260411 0.0160135 0.0684955
0.0433462 0.0407089 0.0467507
0.0109407 0.0184964 0.0688502
0.0107144 0.0184964 0.0692421
0.0409139 0.0187655 0.0172685
0.0419965 0.0431291 0.0420599
0.05154 0.0151742 0.0364502
0.0505056 0.0152697 0.0378717
0.0499631 0.0152487 0.0387947
0.0498309 0.0151939 0.0392104
-0.00382283 0.0478895 0.0788213
0.0410021 0.0157671 0.0597489
0.049722 0.0152727 0.039429
0.0299534 0.0452338 -0.0301808
0.0496129 0.015207 0.0398235
0.0489201 0.0147744 0.0448964
0.0389645 0.0438263 0.0497781
0.0433463 0.0144365 0.056722
0.0398596 0.0350825 0.0571612
0.0411957 0.0147096 0.0594469
0.0409761 0.0147096 0.0598272
0.0345571 0.019084 0.0658787
0.0408005 0.0147096 0.0601315
0.0406687 0.0147096 0.0603597
0.0395209 0.0147556 0.0618812
0.0390099 0.0147689 0.0622729
0.0387368 0.0147394 0.0625059
0.0384941 0.014759 0.0627263
0.0471836 0.0177732 0.0498978
0.0409808 0.045717 0.0388193
0.0419147 0.0161886 0.059135
0.0452361 0.0257768 0.0524487
0.0382511 0.0147785 0.0629472
0.0353537 0.0149625 0.0651656
0.0350446 0.0152231 0.0653509
0.0340936 0.015301 0.0657482
0.0341065 0.0187407 0.0659925
0.0246503 0.0462589 -0.0021622
0.0273278 0.016073 0.0676669
0.0707515 0.0123576 0.0328547
0.0415652 0.0372213 0.018407
0.0463882 0.0320394 0.0482533
0.0495321 0.015257 0.0403745
0.0430732 0.0413105 0.046875
0.04293 0.0442895 0.0348431
0.0493884 0.0152245 0.0418568
0.026375 0.0461484 -0.0402828
0.0493055 0.0151946 0.0423005
0.0125028 0.0473643 0.0788113
0.04653 0.0327354 0.0468411
0.0491803 0.01477 0.0467728
0.0486485 0.0146923 0.0484716
0.0400845 0.0197599 0.0603717
0.0480559 0.0146935 0.0493285
0.0431573 0.0406186 0.0482494
0.0487033 0.0206822 0.0438657
0.0463553 0.0147256 0.0521102
0.0461074 0.0147436 0.0523597
0.0452811 0.0147656 0.0535708
0.0449602 0.0147435 0.0543489
0.0405474 0.0337984 0.0572698
0.0448535 0.0146095 0.0548315
0.0446115 0.0147102 0.0552863
0.0439739 0.0317911 0.0527683
0.0437306 0.0146586 0.0564564
0.0435076 0.0147689 0.0567827
0.0425838 0.0242348 0.0573426
0.0472958 0.0315596 0.0446813
0.0475566 0.0341927 0.0358294
0.043056 0.0147743 0.057336
0.0425658 0.014801 0.0579183
0.0478676 0.0300978 0.044691
0.0418483 0.0147578 0.0587165
0.0416635 0.0147677 0.0589367
0.0360755 0.0152194 0.0649653
0.0604047 0.045465 -0.000624036
0.0357793 0.0150842 0.0650285
0.0268094 0.0164251 0.0669648
0.0268248 0.0164053 0.0671381
0.0398955 0.0455077 -0.035701
0.0262209 0.0164251 0.0679841
0.0105581 0.0192797 0.0688462
0.0311042 0.0297809 0.0657705
0.0363197 0.0216595 0.0640924
0.0408598 0.0193587 0.0163288
0.040812 0.0191753 0.0171116
0.0493335 0.0152696 0.0432852
0.0492276 0.0152292 0.0438687
0.0482296 0.0252844 0.0418138
0.0447654 0.014861 0.0548141
0.0350722 0.0448502 -0.0403468
0.0392212 0.0149651 0.0620669
0.0381545 0.0152823 0.0628744
0.0369952 0.0153054 0.0643002
0.0370923 0.0450827 0.0268876
0.0452119 0.0278144 0.0519239
0.0339688 0.0156767 0.0658643
0.0331464 0.0156705 0.0664387
0.0328673 0.0156957 0.0666722
0.0256605 0.0625754 0.0104213
0.0384467 0.038826 0.0582941
0.0394029 0.018261 0.0611522
0.0266035 0.0167645 0.0668714
0.0265647 0.0167118 0.0672686
-0.0160014 0.0484469 0.0667152
0.00995924 0.0193874 0.0697901
0.0407283 0.0194217 0.0170565
0.0404991 0.019341 0.0182535
0.0415018 0.0412033 0.0277167
0.0513585 0.0155859 0.0366444
0.0431187 0.0187453 0.0568495
0.0511464 0.0155926 0.0369451
0.0437825 0.0210672 0.0559665
0.0505195 0.0157926 0.0378532
0.0333584 0.0282273 0.0642216
0.0501636 0.0157857 0.0383141
0.0499147 0.0157564 0.0387453
0.0494828 0.0157551 0.0397932
0.0489172 0.0152476 0.045273
0.0491755 0.0151102 0.0462923
0.0425625 0.027789 0.0568395
0.0491819 0.0149802 0.0464145
0.0415488 0.0378244 0.0253782
0.0462115 0.0212704 0.0515593
0.0387664 0.04551 -0.0369453
0.0423675 0.0149802 0.0582173
0.0338195 0.0215141 0.066223
0.0411869 0.0152015 0.0594621
0.0408005 0.0150609 0.0601315
0.0404221 0.0151099 0.0607369
-0.00432583 0.048432 0.0706926
0.0394744 0.0151758 0.0617284
0.038101 0.0305829 0.0188071
-0.00398739 0.0482089 0.0688063
0.00267224 0.0480117 0.0659715
0.0372306 0.0153925 0.0639146
0.0394282 0.04551 -0.0380916
0.0262877 0.0168578 0.0674684
0.010195 0.0198298 0.0689085
0.0408714 0.0197821 0.0166087
0.0451205 0.0390038 0.0384489
0.0407432 0.0197718 0.0169308
0.0403594 0.0196279 0.0178955
0.0494004 0.0157951 0.041311
0.0555106 0.0446857 -0.0100472
0.0493685 0.0157187 0.0423247
0.0492344 0.0151073 0.0467902
0.0491559 0.0151787 0.0473595
0.0531548 0.0571616 -0.0257167
0.0488711 0.0152022 0.0481861
0.0431644 0.0363501 0.0514372
0.0372257 0.0217683 0.0630232
0.035262 0.0267564 0.0635244
0.0484919 0.0152209 0.0488295
0.0481606 0.0152148 0.0492945
0.0478973 0.015261 0.0496395
0.0433716 0.0321751 0.0536781
0.0476339 0.0152222 0.0498957
0.0473981 0.015247 0.0503042
0.0470939 0.015247 0.050831
0.0131518 0.0471003 0.0778871
0.0467463 0.015247 0.0514329
0.0461115 0.0152518 0.0523326
0.0456514 0.0152448 0.0529295
0.0454656 0.0152664 0.0532227
0.0372152 0.0341309 0.0615413
0.0452339 0.0153398 0.0534926
0.0448593 0.0152552 0.0542015
0.0494235 0.0161933 0.0428182
0.0521499 0.0562119 -0.0316263
0.0446532 0.0152746 0.0547918
0.0444785 0.0152487 0.0553444
0.0442477 0.0152293 0.0559321
0.0475916 0.0314012 0.038569
0.0439689 0.0152377 0.0563325
0.0429286 0.0152883 0.0576454
0.0365292 0.0156992 0.0647519
0.0380129 0.0291059 0.013293
0.017647 0.0456165 -0.0446655
0.0466946 0.0227579 0.0504227
0.0361144 0.0157428 0.0650479
0.0353752 0.0157558 0.0653283
0.0264313 0.0172071 0.0671695
0.0449168 0.0351933 0.049102
0.0103659 0.0197504 0.0686458
0.00983552 0.0198127 0.0696977
0.00956838 0.0199091 0.0699604
0.0492444 0.0156851 0.0434395
0.0491921 0.0155156 0.0445968
0.0393771 0.0222357 0.0615969
0.0432955 0.0153547 0.05721
0.0393771 0.0155156 0.0615969
0.0390598 0.0157054 0.0618353
0.0388044 0.0155569 0.0621888
-0.0051441 0.0497332 0.0731099
0.0383188 0.015776 0.0626299
0.0378974 0.0157969 0.0631598
0.0373861 0.0158401 0.0638454
0.0372753 0.0156602 0.0638373
0.0463614 0.0348266 0.0426997
0.0370075 0.0157494 0.064301
0.0340022 0.0162148 0.0659065
0.0385734 0.0267519 0.0609389
0.0404209 0.0335071 0.0575889
0.0336857 0.0162566 0.0660546
0.0499317 0.0163016 0.0386492
0.0495827 0.0162642 0.0393203
0.0422365 0.0155918 0.0584443
0.0354944 0.0457651 -0.032678
0.0415363 0.0157167 0.0593015
0.0407806 0.0157847 0.0599659
0.0404711 0.0157086 0.0602219
0.0401697 0.0157823 0.0604907
0.0355008 0.0162265 0.0652708
0.052616 0.0560386 -0.0307335
0.0403084 0.0381425 0.0534838
-0.00528703 0.0483258 0.0693574
0.0345299 0.0162893 0.0656724
0.041195 0.0206296 0.0589815
0.0101932 0.0202685 0.0683449
-0.000594137 0.0572906 0.0578957
0.00950969 0.0203513 0.0698287
0.0406097 0.0357293 0.0558619
0.0496081 0.0162928 0.0417763
0.0400655 0.0297337 0.0594046
0.0495049 0.0157102 0.0473459
0.0475618 0.0267674 0.0467984
0.0359376 0.0463882 -0.0258457
0.0489426 0.0156971 0.0482956
0.0481827 0.0157303 0.0493007
0.0476651 0.0157576 0.0499416
0.0474203 0.0157636 0.0503102
0.0365289 0.0282799 0.0173801
0.0467463 0.0157684 0.0514329
0.0466765 0.035236 0.036274
0.0464279 0.0157897 0.0517845
0.0417491 0.0395647 0.0257884
0.0461234 0.0157897 0.052312
0.0350247 0.045397 -0.0266646
0.0476741 0.0192024 0.0488038
0.0484594 0.0187303 0.0457908
-0.0141896 0.0482758 0.0751771
0.0458039 0.0158111 0.0526654
0.0289487 0.0453914 -0.0293406
0.0259125 0.0176865 0.0677183
0.0454222 0.0157399 0.0531765
0.0452221 0.0157452 0.0534731
0.0426845 0.0453039 -0.0289317
0.0449011 0.0157665 0.0538291
0.0419014 0.0442578 0.036358
0.0447041 0.015732 0.0543301
0.0388699 0.0318593 0.0157421
0.0337377 0.0453174 -0.0304355
0.0435919 0.0157737 0.0568467
0.0431006 0.015792 0.0573226
0.00305839 0.047588 0.0639027
0.0484764 0.0459843 -0.0287636
0.0426919 0.0157452 0.0578553
0.0396222 0.0158904 0.0609723
0.0387837 0.0159327 0.0620246
0.0492594 0.0260815 0.0372803
-0.0178384 0.0481252 0.0714971
0.0447245 0.0352251 0.0493748
0.0345874 0.0212637 0.0658263
0.0365419 0.0162133 0.0647326
0.036081 0.0163368 0.0650059
0.0263708 0.0177639 0.0671244
0.0100788 0.0206643 0.0680431
0.0542272 0.0461051 -0.0176242
0.00990723 0.0205181 0.0686402
0.0508129 0.0166072 0.0373894
0.0441349 0.020294 0.0553961
0.0507219 0.0166982 0.0375471
0.0482443 0.0312433 0.0423718
0.0485558 0.0202216 0.0452702
0.0381261 0.0307418 0.0157636
-0.0323596 0.0485464 0.0678485
0.00360213 0.0473294 0.0748276
0.0497182 0.0165589 0.0388855
0.0496488 0.016715 0.0392502
0.0495404 0.0167316 0.0397649
0.0494662 0.0162737 0.0433221
0.0517945 0.0455768 -0.0227107
0.0502609 0.015779 0.0452455
0.0448295 0.0158325 0.0541531
0.0418434 0.0158538 0.0591252
0.0390919 0.0163197 0.0613453
0.0483954 0.0252632 0.0434052
0.0388845 0.0162543 0.0617501
0.0456366 0.0352576 0.0472801
0.00652601 0.0477476 0.0702966
0.0387318 0.0163407 0.0619546
0.0385088 0.016307 0.0623231
0.0474558 0.0177919 0.0492709
0.0249094 0.0443768 -0.0456776
0.0383515 0.0163429 0.0626732
0.0379743 0.0163316 0.0632266
0.0610121 0.0456444 -0.0001961
0.0374779 0.0162862 0.0638293
0.0334774 0.016811 0.0663709
0.0331177 0.0167723 0.0668671
0.00944965 0.0208301 0.0693661
0.00933421 0.0210186 0.0692327
0.00945085 0.0207253 0.0696307
0.00918251 0.0209136 0.0697621
0.00454718 0.0477004 0.0637241
0.0474399 0.023196 0.0472816
0.0493539 0.0158557 0.0477166
0.0371395 0.0457883 0.0253526
0.0417134 0.0188505 0.0584503
0.0447173 0.0161564 0.0543473
0.0430452 0.0162187 0.0573579
0.0235424 0.045354 -0.00117673
0.0386173 0.0257458 0.0138462
0.0426919 0.0161814 0.0578553
0.0424657 0.0161741 0.058314
0.0415613 0.0162251 0.0594137
0.0445956 0.019816 0.0547804
0.0350726 0.0167585 0.0653524
0.00990702 0.0210186 0.0682405
0.00946771 0.0211513 0.0688348
0.049729 0.0167826 0.0418001
0.044391 0.0571928 -0.0364874
0.0338195 0.0187731 0.066223
0.0495307 0.016684 0.0428352
0.0465375 0.0357595 0.0358747
0.0496113 0.0167426 0.0431706
0.0471701 0.0317732 0.044849
0.0485501 0.0162493 0.0488178
0.0476909 0.016302 0.0499112
0.0474203 0.0162849 0.0503102
0.0467295 0.0162934 0.0514288
0.0315133 0.045355 0.00621745
0.0458039 0.0162467 0.0526654
0.0307836 0.0454711 -0.0383188
0.0444924 0.0162767 0.0552969
-0.00739794 0.0477733 0.0683136
0.0444176 0.016311 0.0556665
0.0440038 0.0162726 0.0563387
0.0436022 0.0163159 0.0567988
-0.0217013 0.0482541 0.0717877
0.04946 0.0192315 0.0393662
0.0374856 0.0167092 0.0638729
0.0494753 0.026701 0.0377563
0.0387188 0.0177317 0.0619371
0.0369828 0.0167361 0.0642994
-0.0190167 0.0479793 0.0685379
0.0365244 0.0167828 0.0646712
0.0498096 0.0279771 0.0371272
-0.00644114 0.0476023 0.0649564
0.0365648 0.0437514 0.0292179
0.0360626 0.0167217 0.0649378
0.0407237 0.0364919 0.0550645
0.0333193 0.0169894 0.0666892
0.0331684 0.0172136 0.0669106
0.00916187 0.0212695 0.0693312
0.0175705 0.0451837 -0.0462331
0.0500835 0.0172778 0.0383528
0.0498407 0.0172704 0.03884
0.0503149 0.0162656 0.0462521
0.0399846 0.0167833 0.0602779
0.0401736 0.0362652 0.0559506
0.0396715 0.0168204 0.060487
0.034005 0.0457894 -0.0238983
0.0394291 0.0167856 0.0607638
0.0441072 0.0398978 0.0428041
0.0387462 0.0167483 0.0619397
0.019022 0.0467248 -0.0170971
0.0386062 0.0168204 0.0623322
-0.0011546 0.0474602 0.0637998
0.00703273 0.047452 0.0693523
0.0377854 0.0167539 0.0635538
0.0151644 0.0470888 0.0720012
0.0356676 0.0169078 0.065022
0.0458383 0.0356169 0.0462556
0.0437399 0.0299371 0.0544402
0.0343719 0.0172741 0.0655994
0.033967 0.0172685 0.0658817
0.0476469 0.0456228 -0.0165269
0.00942041 0.0216746 0.0683334
0.00933392 0.021543 0.0686332
0.00901804 0.0216414 0.0693303
0.0088746 0.021521 0.0696288
0.0497163 0.017122 0.0407889
0.0508091 0.0164077 0.0448961
0.0459672 0.0167042 0.0523824
-0.0230914 0.0488825 0.0753955
0.0447583 0.0165952 0.0544763
0.018334 0.0475608 0.0716446
0.0447007 0.0167439 0.0548012
0.043092 0.0166606 0.0573625
0.042191 0.0408699 0.0500231
0.0429118 0.0166975 0.0577603
0.0427544 0.0165952 0.0579472
0.0425809 0.0166729 0.058331
0.0176042 0.0470933 0.0668586
0.0415534 0.0167425 0.0594941
0.0410738 0.0168063 0.0597581
-0.00387978 0.0479817 0.07852
0.0467727 0.0453297 -0.0226126
0.0390991 0.016865 0.0610784
0.0360781 0.0172159 0.0647775
0.049834 0.0173134 0.0408851
0.0498521 0.0172114 0.0417537
-0.00690281 0.0488669 0.0743561
0.0381961 0.0172758 0.0629425
0.049765 0.0172001 0.0420045
0.0488355 0.045327 -0.0211856
0.0506538 0.0167155 0.0453151
0.0590438 0.0455511 0.00139984
0.0178352 0.0458522 -0.0162915
0.0502286 0.0166972 0.0464016
0.0489927 0.0296221 0.0405422
0.0489126 0.0196991 0.0428143
0.0500938 0.0166782 0.0468017
0.0413991 0.0376997 0.0190946
-0.000905937 0.0474385 0.0634691
0.04986 0.0166399 0.0472399
-0.0233147 0.0506488 0.0769822
0.0495008 0.0165995 0.0477621
0.0492753 0.0167049 0.047986
0.0485119 0.0167055 0.048695
0.0482421 0.0167456 0.048909
0.0389361 0.0455474 -0.0358394
-0.00501866 0.0479389 0.0670926
0.0536289 0.0455116 -0.019888
0.0476089 0.0167355 0.049839
0.0469891 0.0167312 0.050841
0.0380336 0.0302873 0.0168572
-0.0278104 0.0486352 0.0727691
0.0466889 0.0167468 0.0513324
0.0464461 0.0167525 0.051703
-0.0329033 0.049014 0.0713901
0.0410812 0.0212264 0.0593704
0.046396 0.0454252 -0.0276602
0.0445236 0.0168262 0.0553029
0.0439805 0.0167984 0.0563346
0.043604 0.0167831 0.0568157
0.0390991 0.0170431 0.0610784
0.0390325 0.0172206 0.061339
0.0519175 0.0456196 -0.0231238
0.0388521 0.0171983 0.0617061
0.0382511 0.016998 0.0629472
0.0377486 0.017206 0.0635509
0.0374721 0.0172262 0.0638519
0.0388521 0.018265 0.0617061
0.0495094 0.0175914 0.0462973
-0.0168184 0.048286 0.0689304
0.00654784 0.0471666 0.0608088
0.0518464 0.0553655 -0.0238006
-0.00240331 0.0476475 0.065496
0.0339374 0.0177325 0.0658855
0.0335526 0.017712 0.066374
0.0450733 0.0247043 0.0528419
0.0174707 0.0456438 -0.0156601
0.00872076 0.0221938 0.0693619
0.00864409 0.0221403 0.069628
0.0497194 0.0176311 0.0390835
0.0498273 0.0174489 0.0404966
0.048373 0.0258123 0.0412655
0.0473807 0.0287597 0.0468141
0.039932 0.0459208 -0.0273643
0.049834 0.017307 0.043285
0.039548 0.0228281 0.0171008
0.0350235 0.0452864 -0.0392625
0.047733 0.0168338 0.0495239
0.0471675 0.0168338 0.0505036
0.0370826 0.0441726 0.0545711
0.0405729 0.0171934 0.0600056
0.0315213 0.0454338 0.0113035
0.0400386 0.0173031 0.0602844
0.0436152 0.0571928 -0.0351438
0.0385331 0.0172796 0.0623253
0.0379999 0.0172796 0.0632488
0.0366958 0.0174017 0.064441
0.0355079 0.0177617 0.0649319
0.0350182 0.0177443 0.0651467
0.0342971 0.0176539 0.0655957
0.050056 0.0172916 0.0438004
0.0486606 0.0258058 0.0398423
-0.0189099 0.0481631 0.0717528
0.0478078 0.0170309 0.0491944
0.0474453 0.0171892 0.0497724
0.0471152 0.0171957 0.0503396
0.0185371 0.0482792 -0.0171072
0.00606801 0.047326 0.0613699
-0.00326386 0.0485185 0.0772532
0.0468816 0.017175 0.0507586
0.0459781 0.0172051 0.0523635
0.0365048 0.0207617 0.0642469
0.039892 0.0237041 0.061205
0.0452811 0.017118 0.0535708
0.0432955 0.0171819 0.05721
0.0419959 0.017209 0.0592276
0.0411578 0.0172816 0.0597526
0.0363836 0.0177166 0.0645818
0.0452186 0.0362093 0.0473991
0.0410993 0.0191982 0.0588583
0.0361081 0.0177553 0.0647256
0.0171362 0.0469143 0.0673191
0.00887527 0.0225544 0.0686276
0.00348618 0.0475782 0.0685618
0.0490007 0.0283017 0.0387728
0.045828 0.0455358 -0.0245764
0.050073 0.0173566 0.044871
0.0349675 0.0222451 0.0651845
0.0501403 0.017298 0.0453544
0.0484434 0.0257201 0.0363335
0.0502995 0.0170773 0.0459787
0.0500348 0.0171755 0.0463372
0.0371707 0.0198098 0.0638757
0.0499156 0.0170656 0.0467436
0.0496454 0.0172462 0.0468516
0.04954 0.0171264 0.0472443
0.040477 0.0174144 0.0600918
-0.00111306 0.0481626 0.0771279
0.0397797 0.0175961 0.0604996
0.0390904 0.0177185 0.0614045
0.0381516 0.02171 0.0624527
0.0384601 0.0177396 0.0623186
0.00602721 0.0483004 0.0713206
0.0379525 0.0175655 0.0631644
0.0315431 0.0453927 0.0108658
0.0165418 0.0473807 0.0728154
0.0376561 0.0177981 0.0634027
-0.0277399 0.0488237 0.0684469
0.0374253 0.01774 0.0637275
0.057039 0.0455355 -0.00769437
0.0343345 0.0181935 0.0655976
0.0339647 0.0182326 0.0659048
0.038151 0.0456574 -0.0350794
0.0398303 0.0380929 0.0237119
0.0379313 0.0403529 0.0579011
0.0420151 0.0397905 0.0497421
0.0336153 0.0182484 0.0663766
0.0399067 0.0228399 0.0163794
0.00476255 0.0470418 0.077551
0.0397197 0.0228281 0.0168035
0.0378326 0.044702 0.0262721
0.0376754 0.0288416 0.0143442
0.0498249 0.0175908 0.0439008
0.0404739 0.0341053 0.015797
0.0403029 0.0425977 0.0533934
0.0382345 0.0273789 0.014576
-0.0204396 0.0481013 0.0689024
0.0486846 0.0173676 0.0477759
0.0477404 0.0174264 0.0489113
0.0472287 0.0174029 0.0499974
0.0410757 0.0177168 0.0597747
-0.0094488 0.0478523 0.0757658
0.040477 0.0177671 0.0600918
0.0356064 0.0181881 0.0649781
0.0459369 0.035841 0.043795
0.0320982 0.0222755 0.0677043
0.0392274 0.0331167 0.0190562
0.00887719 0.0230629 0.0682243
0.0400117 0.0232057 0.0158177
0.0457628 0.0378414 0.0365365
0.0398561 0.0231651 0.0163004
-0.00183265 0.0478099 0.0798743
0.0393915 0.0231834 0.017272
0.034203 0.0347606 0.0195588
0.049711 0.0183599 0.0398648
0.0329143 0.0237499 0.0656907
0.0497093 0.0182448 0.0408343
0.0497095 0.017862 0.0433006
0.0405447 0.0461323 -0.0386255
0.00860289 0.0474347 0.0643993
0.0319419 0.0227234 0.0672465
0.0495971 0.0178683 0.0443353
0.00921999 0.025127 0.0683638
0.0493862 0.0175299 0.0466605
0.0481144 0.017774 0.0479134
0.0473473 0.0176885 0.0495921
0.0310851 0.0455332 -0.027041
-0.00546351 0.0478264 0.063463
0.0469438 0.0177679 0.0503576
0.0478973 0.0338814 0.0360394
0.0376108 0.0455009 -0.0301438
0.0478416 0.0188334 0.0482026
0.0467003 0.0177827 0.0508377
0.029376 0.0454851 -0.0288807
0.0464871 0.0177519 0.0512819
0.0463127 0.0177519 0.0515841
0.0461833 0.0177413 0.0518972
0.0459781 0.0177279 0.0523635
0.0407191 0.0302992 0.0583058
0.0457053 0.0176835 0.052916
0.0384347 0.0257462 0.0153625
0.0452811 0.0175537 0.0535708
0.0446416 0.0177147 0.0547896
0.0439721 0.0177092 0.0558132
0.0438407 0.0175959 0.056199
0.00592463 0.0475872 0.0653383
0.0481226 0.026273 0.0443692
0.0455343 0.0450375 -0.0310677
0.0436489 0.0177941 0.0563313
0.0433017 0.01758 0.0572659
0.0430181 0.0176881 0.0578238
0.0424254 0.0176344 0.0587171
0.0438597 0.0411673 0.0456327
0.0415613 0.0177998 0.0594136
0.048955 0.0472238 -0.0167426
0.036922 0.0182086 0.0642493
0.0364145 0.0182764 0.0646482
0.0287237 0.019309 0.067449
0.0496919 0.0455982 -0.019169
0.039724 0.0233338 0.0163961
0.00887416 0.0257063 0.0692295
0.0390868 0.0182277 0.0614246
0.0379367 0.0182404 0.0627584
0.0377215 0.0182483 0.0630644
0.0479507 0.0246979 0.0468303
0.037543 0.0182483 0.0633736
0.0372029 0.0182544 0.0639126
0.0382328 0.0190265 0.0623788
0.0345321 0.0186883 0.0656887
0.032282 0.0232385 0.066486
-0.00579071 0.0483698 0.0700298
0.0333866 0.0187058 0.0667727
0.0180729 0.0472239 0.067811
0.0332494 0.0187058 0.0670104
0.0472181 0.0272214 0.0483159
0.0331121 0.0186143 0.0672481
0.0287282 0.0196863 0.0674913
0.0285221 0.0196842 0.0678649
0.00876157 0.0235254 0.0684245
0.0399489 0.0236478 0.0153063
0.0440772 0.0327309 0.0523561
0.0399846 0.0235873 0.0157446
0.0473233 0.0220285 0.0492337
0.0396924 0.023781 0.0159174
0.0396194 0.0237082 0.0163273
0.0480001 0.0341556 0.0354614
0.00748845 0.0474414 0.0652963
0.0392079 0.0236778 0.0172899
0.0462516 0.0369197 0.0354899
0.04969 0.0187997 0.0392678
0.0495743 0.0187779 0.040392
0.0495368 0.0187246 0.0413141
0.0491257 0.0183183 0.0443517
0.0328562 0.0281122 0.0646915
0.0474395 0.0336713 0.0373825
0.0490506 0.0182745 0.0448419
0.0436719 0.0227206 0.0557581
0.0484923 0.0181479 0.0468089
0.0479369 0.0182177 0.0478153
0.0394519 0.0458702 -0.0277328
0.0472477 0.0179747 0.0495646
-0.0254572 0.0483305 0.0702932
0.0432772 0.0179022 0.0570418
0.0411738 0.018267 0.0594849
0.0409188 0.0425748 0.0253265
0.0404417 0.0183315 0.0601529
0.0351394 0.0187272 0.0654367
0.0476131 0.0317522 0.0433067
0.0289113 0.0198039 0.0672576
0.0085002 0.0238175 0.0693272
0.0530904 0.0560665 -0.0306553
0.0325439 0.0267347 0.0653823
0.0493428 0.0187377 0.0422959
0.0491333 0.0187695 0.0428737
0.0491321 0.018451 0.0438341
0.0374698 0.0367897 0.0225003
0.0478379 0.0181986 0.0481423
0.0474226 0.0183247 0.0492616
0.0116408 0.0533651 0.0599375
0.0472477 0.0182372 0.0495646
0.04136 0.0353106 0.0178292
-0.00662847 0.047897 0.0638808
0.0388014 0.0251666 0.014394
0.0471615 0.0183027 0.0498918
0.0469104 0.0183 0.0503487
0.0394619 0.0342523 0.0577833
0.0379032 0.0368557 0.0591831
0.0186392 0.0475759 0.067916
0.0464871 0.0182753 0.0512819
0.0463385 0.0182954 0.0516594
0.0458379 0.0182424 0.0526732
0.0456902 0.0182466 0.0528956
0.0455237 0.0182343 0.0532841
0.0493588 0.0290384 0.040108
-0.00287513 0.0472838 0.0627799
0.0421413 0.0303018 0.0564492
0.0453402 0.018226 0.0536684
0.0093349 0.025272 0.0682315
0.0169573 0.0447879 -0.0471709
0.0451662 0.018226 0.0539698
0.0449406 0.0182384 0.0542606
0.040024 0.026667 0.0124098
0.0445241 0.0182574 0.0548275
0.000882654 0.0552453 0.0604712
0.043883 0.0182441 0.0556923
0.0531977 0.0565337 -0.0193411
0.0428643 0.0181427 0.0576901
0.0426403 0.0183608 0.0578591
0.042477 0.0181549 0.058261
0.0423839 0.0461852 0.041589
0.0414735 0.0182639 0.0592057
0.0373645 0.0186946 0.0636827
0.0372306 0.0186946 0.0639146
0.0288177 0.0337406 0.0641863
0.033056 0.0192459 0.0668881
0.0364944 0.0187662 0.0647898
0.0361071 0.0186818 0.064994
0.0552735 0.0446183 -0.0103365
0.0335829 0.0191948 0.0664726
0.0284066 0.0198596 0.0681983
0.0392686 0.0244658 0.0135848
0.0430424 0.0337098 0.0533484
-0.008353 0.0475243 0.0673678
-0.00607776 0.0484169 0.069127
0.0394162 0.0243178 0.0145292
0.0322123 0.0237995 0.0663734
0.0394663 0.0242685 0.0148424
0.0466626 0.020237 0.050828
0.0394591 0.0242192 0.0152548
0.0454678 0.0197692 0.0532474
0.0453451 0.0366431 0.04246
0.0390244 0.0372805 0.0573744
0.0394366 0.0241575 0.0157938
0.0391067 0.0242171 0.0168151
0.0447704 0.0376737 0.0418554
0.0390242 0.0241737 0.0173082
0.0390359 0.0240218 0.0175879
0.0494405 0.0192865 0.0379666
0.039657 0.0455465 -0.038688
0.0493867 0.0192508 0.0398263
0.0494078 0.0192146 0.0403231
0.0487585 0.0188136 0.0439478
0.0397234 0.0459593 -0.0272029
-0.000211574 0.0573739 0.0565665
0.0487981 0.0186576 0.0441793
0.0397308 0.020821 0.0609843
0.0404382 0.0197599 0.0597591
0.0350524 0.0450863 -0.0399125
0.0486781 0.0187806 0.0443537
0.0417169 0.0183493 0.0589442
0.0401335 0.018735 0.0604009
0.0249951 0.045577 -0.0344928
0.0391489 0.0187611 0.0614921
0.038684 0.0187728 0.0619175
0.0401085 0.0192237 0.0603745
0.0341359 0.0190892 0.0660749
0.0289172 0.0201149 0.067314
0.0287895 0.0201468 0.0675351
0.0495325 0.0290463 0.0378071
0.0284066 0.0200511 0.0681983
0.00864406 0.0242481 0.0693281
0.0494077 0.0192444 0.04129
0.0356047 0.0327752 0.0198309
0.0493474 0.019243 0.0418135
0.0483365 0.0187685 0.0462287
0.0482283 0.0187622 0.0464661
0.0481493 0.0187372 0.0468029
0.0409499 0.0292363 0.0583394
0.0480263 0.0187891 0.0473049
0.0324925 0.0256714 0.0654213
0.0405973 0.018757 0.0598262
0.0356211 0.0192022 0.0655024
0.0389229 0.0247848 0.0162835
0.0381016 0.0447643 0.0503662
0.0494283 0.0197601 0.0388161
0.04681 0.0287599 0.0488226
0.0491954 0.0192598 0.042391
0.0364116 0.0221838 0.0637332
0.048554 0.0192513 0.0448353
0.0474889 0.0188326 0.0492802
0.0370742 0.0461877 0.0313856
0.0471725 0.0188242 0.0498948
0.0467053 0.0187988 0.0509042
0.0463702 0.0187734 0.0516844
0.046196 0.0187734 0.0519862
0.0439784 0.0227599 0.0548271
0.0307089 0.0452409 0.00691061
0.0454554 0.0187734 0.053269
0.0407806 0.0228209 0.0599659
0.0447583 0.0187734 0.0544763
0.0481938 0.0233193 0.0417759
0.0445335 0.0187622 0.0548293
0.00803924 0.0477876 0.078809
0.0438527 0.0188242 0.0556449
-0.00030688 0.0481199 0.0717315
0.0422425 0.0187873 0.0580338
0.038061 0.0457497 0.0239165
0.0412454 0.0188003 0.058961
0.0386693 0.0191603 0.0619729
0.0447779 0.0333092 0.0509423
0.0384154 0.0192266 0.0622913
0.0426546 0.0452456 -0.0314799
0.0379775 0.0192209 0.062821
-0.0013516 0.0477158 0.079441
0.0367352 0.0218254 0.0634726
-0.0150969 0.0483063 0.0713486
0.0377215 0.0190516 0.0630644
0.0376044 0.0192159 0.0633784
0.0365389 0.0192555 0.0649127
0.034361 0.0194035 0.066085
0.0186382 0.0454459 -0.0452823
0.033626 0.0195166 0.0664581
0.0333193 0.0195543 0.0666892
0.0398937 0.0393085 0.0282021
0.0396447 0.0438968 0.0237335
0.0329555 0.0196045 0.0669194
0.00913423 0.0247278 0.0683291
0.0579403 0.045453 -0.00708889
0.00870157 0.0246962 0.0693284
0.00850009 0.0246899 0.0697274
0.0431476 0.0559051 -0.0352671
-0.0224178 0.0497888 0.0758954
0.044192 0.019819 0.0554572
0.0391726 0.025268 0.0129511
0.0389555 0.0252807 0.0132272
-0.0249236 0.0489018 0.0663689
0.0388865 0.02523 0.0137468
0.0387352 0.0253215 0.0142086
0.0492225 0.0197672 0.0403441
0.0401514 0.0336776 0.0158558
-0.0064131 0.047859 0.0791078
0.0493665 0.0195092 0.0406947
0.0485677 0.0192777 0.0453005
0.0482283 0.0191154 0.0464661
0.0427861 0.0188496 0.0572923
0.0398634 0.0192294 0.0607545
0.0410119 0.0317294 0.0573431
0.0391852 0.0192848 0.0614959
0.0306638 0.0202702 0.0670887
0.0343229 0.030034 0.020851
0.0473893 0.027724 0.0468102
0.0300117 0.0203844 0.0673182
0.0440801 0.0222294 0.054826
-0.0139911 0.0483063 0.0694333
0.0293581 0.0204986 0.0675502
0.0292155 0.0204986 0.0677974
0.0482651 0.0257428 0.041831
0.0392019 0.0256785 0.0129003
0.0195582 0.0459097 -0.0432757
0.0387467 0.0257694 0.0134386
0.0386679 0.0253874 0.0147252
0.0492844 0.0197165 0.0413369
0.0217531 0.0448532 -0.0446775
0.0492269 0.0197863 0.0417936
0.0492941 0.0196522 0.04182
0.0375426 0.0250937 0.0627243
0.0371433 0.0342677 0.061866
0.0491188 0.0197163 0.0423237
0.0480207 0.0192937 0.0473257
0.0434458 0.0192346 0.0562639
0.0379418 0.0271658 0.0157828
0.0432235 0.0191995 0.0565347
0.0423532 0.0191171 0.0577754
0.0421064 0.0193313 0.0579029
0.0433572 0.0352142 0.0521032
0.0352761 0.0459355 0.0534001
0.0418891 0.019202 0.0581458
0.0356211 0.0197423 0.0655024
0.00904683 0.025227 0.0688554
0.0404009 0.0359527 0.0212237
0.00887416 0.0252462 0.0692295
0.00875912 0.0252462 0.0694288
0.0399537 0.0258068 0.0122648
0.033872 0.0325313 0.0207319
0.0384936 0.0258285 0.0143272
0.0384467 0.0256166 0.0157417
0.0496651 0.0203016 0.0382664
0.0559927 0.0457288 -0.00714882
0.0492598 0.020248 0.0393795
0.0487227 0.0197672 0.0433098
0.0475055 0.0192653 0.0492848
0.0483421 0.0248672 0.040669
0.0360198 0.046597 0.0298119
0.0471725 0.019261 0.0498948
0.0469622 0.0193102 0.0503841
0.0385213 0.0212617 0.0623042
0.0468361 0.0193223 0.0506774
0.0369105 0.0292116 0.0626692
0.0611832 0.0449557 0.00782766
0.0459781 0.0192962 0.0523635
0.0456731 0.0192962 0.0528917
0.0448999 0.0192639 0.0542883
0.0443662 0.0192962 0.0551553
0.018482 0.0461635 -0.0430118
0.0535471 0.0564328 -0.0276128
0.0386744 0.0196874 0.0620141
0.0495336 0.02317 0.0374453
0.0359239 0.0197932 0.065278
0.051847 0.0557238 -0.0302016
0.0485386 0.0197453 0.0458399
0.0481993 0.0196688 0.0468413
0.040773 0.0309699 0.0579791
0.0406092 0.0212505 0.0598628
0.0412522 0.0197336 0.0585491
0.0483706 0.0240363 0.0424197
0.0407034 0.0197599 0.0592996
0.0391591 0.0198125 0.0615745
0.0389912 0.0197875 0.0617852
0.0399439 0.0362427 0.0563151
0.0488942 0.0202553 0.0427127
0.0145373 0.0458829 -0.0125793
0.00921975 0.0255023 0.0684309
0.0392138 0.0263102 0.0129797
0.0365276 0.0238131 0.0637823
0.0389553 0.0263367 0.0132273
0.038738 0.0263499 0.0135037
0.0386035 0.0263367 0.0138368
0.0486962 0.0202229 0.0433001
0.0326166 0.0215936 0.0681732
0.0479041 0.019782 0.0478277
0.0481784 0.0252322 0.0453526
0.0469372 0.0197439 0.0503309
0.0420119 0.0197427 0.0578333
0.0367405 0.0199967 0.0643635
0.0399754 0.0358203 0.0217206
0.036059 0.0202598 0.0649107
0.0353068 0.0201546 0.0656468
0.034495 0.0203483 0.0663671
0.0458945 0.0454452 -0.0268916
0.0340573 0.0203681 0.0668777
0.00104961 0.0558483 0.060832
0.0336065 0.0203957 0.0673117
0.0332246 0.0203651 0.0676533
0.0492333 0.0267359 0.0383754
0.0410729 0.0383375 0.0198096
0.0327463 0.020444 0.0678819
0.049598 0.0207849 0.0382938
0.0437999 0.0213002 0.0561363
0.0492197 0.0207653 0.0392919
0.0530855 0.0564246 -0.0187469
0.0490134 0.0207491 0.0403313
0.0356676 0.0207859 0.065022
0.048335 0.0198571 0.0466814
0.0468361 0.0197585 0.0506774
0.0467053 0.0197585 0.0509042
0.0445752 0.0452718 -0.0292064
0.0463702 0.019819 0.0516844
0.046196 0.019819 0.0519862
0.0333136 0.0453643 -0.0267008
0.0451069 0.0197319 0.0538726
0.030629 0.02563 0.0677489
-0.00346725 0.047815 0.0801054
0.0447583 0.0197319 0.0544763
0.0336646 0.0458194 0.0132912
0.0439134 0.0197585 0.0557398
0.0390044 0.0202647 0.0617758
0.0379489 0.0202892 0.0627595
0.0377215 0.0202118 0.0630644
0.0370353 0.0202697 0.0638197
0.054338 0.0463052 -0.0171161
0.0366371 0.0203007 0.064276
0.0406635 0.0264744 0.0118688
0.0402464 0.0438408 0.0384912
0.039255 0.0266485 0.0130083
0.038976 0.0267993 0.0132415
0.0460454 0.0357256 0.040747
0.038738 0.0268195 0.0135037
0.00105725 0.0560922 0.0603688
0.0384052 0.0267186 0.0148302
0.0383342 0.0265682 0.0152032
0.049032 0.0207426 0.041794
0.0365053 0.04656 -0.0262289
0.0484031 0.0202394 0.0463412
0.048335 0.0200332 0.0466814
0.0481993 0.0202416 0.0468413
0.0385987 0.0447961 0.023845
0.0480154 0.0202004 0.0473016
0.00507133 0.0469354 0.0696162
0.0249835 0.0456353 0.0007274
0.0472477 0.0198993 0.0495646
0.0358762 0.0458379 -0.0337395
0.0427504 0.0199529 0.0569542
0.0471329 0.0307483 0.0462968
0.042223 0.0202176 0.0574676
0.0411231 0.0202513 0.0588616
0.00103671 0.0481985 0.0669044
0.0406919 0.0202269 0.059353
0.0402613 0.0202904 0.0600654
0.0400845 0.0202904 0.0603717
0.0396946 0.0202995 0.0609803
0.0395951 0.0271796 0.0128192
0.0394452 0.0203175 0.061279
0.0362722 0.020435 0.0645747
0.0359369 0.0446775 -0.0408446
0.0393938 0.044795 -0.0406321
0.0434694 0.0337326 0.0528088
0.0354338 0.0207535 0.065267
-0.00280152 0.0478433 0.0793524
0.0350372 0.0207498 0.0657138
0.0249309 0.0462051 -0.000681571
0.048404 0.0207556 0.0457951
0.0406635 0.0268236 0.0118688
-0.00699243 0.0475301 0.0675112
0.0390902 0.0262614 0.0178937
0.0498078 0.021074 0.0377304
0.0407081 0.0222878 0.0598915
0.0494813 0.0212139 0.0383181
0.0175514 0.0469276 0.0678001
0.0379513 0.0303068 0.0143164
0.0491958 0.0213053 0.0388903
0.0491008 0.0212371 0.0392978
0.0487524 0.0206322 0.0433584
0.0448555 0.0342306 0.049783
0.0469104 0.020222 0.0503487
0.046498 0.0202165 0.051263
0.0377154 0.0457477 -0.033225
0.045205 0.0201993 0.0534694
0.0381049 0.0262205 0.0614004
0.0125619 0.0470974 0.0778422
0.0449582 0.0202069 0.0538412
0.0448295 0.0200203 0.0541531
0.0439134 0.0201947 0.0557398
-0.00144528 0.0487911 0.0697033
0.0434683 0.0202311 0.056244
0.0429345 0.0202901 0.0567353
0.0427504 0.0203038 0.0569542
-0.0136763 0.0482568 0.073088
0.0408696 0.0203811 0.0592119
0.037398 0.0206714 0.0632649
0.0369324 0.0207535 0.0637312
0.0342012 0.0208308 0.0665618
0.0390553 0.0272616 0.0131542
-0.0394106 0.0488435 0.0674612
0.0385148 0.0273373 0.0138238
0.0237549 0.0454957 -0.00154463
0.0367454 0.0462333 0.0259551
0.0472397 0.0212597 0.0494451
0.0396045 0.0397969 0.0558602
0.0383178 0.0271171 0.0146316
0.0382841 0.0272069 0.01489
0.038468 0.0266538 0.0177715
0.0399787 0.0257133 0.059866
0.0489235 0.0212719 0.0398287
0.0488879 0.0208467 0.0433236
0.037193 0.023669 0.0629797
-0.0195516 0.0486093 0.0734644
0.0486137 0.0207844 0.0443185
0.0442327 0.0411673 0.0449867
0.0383725 0.0358134 0.0581369
0.0484976 0.0206907 0.0452997
0.0463173 0.0202438 0.0516427
0.0461815 0.020283 0.0519312
0.0459612 0.0202592 0.0523595
0.0414655 0.0203855 0.0585796
0.0390893 0.0207262 0.0617842
0.0189715 0.0473845 0.0723403
0.0387837 0.0206378 0.0620246
0.00656709 0.0475467 0.0699255
0.0340931 0.0211626 0.0663156
0.0376121 0.0317762 0.0198539
0.00573692 0.0475407 0.0658634
0.0328448 0.0212339 0.0681778
0.0403664 0.0273305 0.0120834
0.035027 0.0256229 0.0643314
0.038714 0.0274339 0.0133453
0.0473489 0.0331944 0.0388294
0.0388903 0.0279039 0.01304
0.0390482 0.0362931 0.0223666
0.0492564 0.0214688 0.0384854
-0.00837708 0.0482116 0.0744428
0.00652678 0.0477868 0.0768953
0.0487123 0.0213314 0.0404279
0.0436904 0.0556594 -0.0365739
0.0465582 0.0449734 -0.0192413
0.0488651 0.0211664 0.0413631
0.0483293 0.0207429 0.0462911
0.0481276 0.0207718 0.046796
0.0494756 0.0223132 0.0369058
0.0478066 0.0205617 0.0475966
0.00651196 0.0474081 0.069621
0.0473522 0.030158 0.0461837
0.0476291 0.0207633 0.0478789
0.0475023 0.020687 0.0483635
0.0420591 0.0206977 0.0578405
-0.0282771 0.0485527 0.0658774
0.0418938 0.0207331 0.0581878
0.0414744 0.0207491 0.0587642
0.039986 0.0338026 0.0192621
0.0355053 0.0456995 -0.0372969
0.0420764 0.035797 0.0538072
0.0409557 0.0207806 0.0593126
0.0402613 0.0207325 0.0600654
0.0198101 0.0460587 -0.0425122
0.0400845 0.020821 0.0603717
0.0409254 0.0423432 0.0263151
0.0145703 0.0470716 0.0772635
0.0207584 0.0454115 -0.0443547
0.0359234 0.0211731 0.0647788
0.00560793 0.0476905 0.0622868
0.0356901 0.0212819 0.0649829
0.0236545 0.0461985 -0.0417706
0.0336367 0.0213314 0.0665395
0.0181025 0.0470622 -0.0113544
0.0395325 0.027636 0.0127278
0.0383688 0.0276273 0.0142433
0.0475469 0.028296 0.0462464
0.0424205 0.0482678 0.0308112
0.0377379 0.0273916 0.017036
0.0376216 0.0273916 0.0172375
0.0494725 0.0218683 0.0374445
0.049404 0.0217875 0.0377897
0.0493484 0.0216804 0.0381261
0.0490726 0.0217447 0.0388039
0.0487992 0.0216492 0.039744
0.0486765 0.0218419 0.0398899
0.0485835 0.0217617 0.0403509
0.0490708 0.021089 0.0428737
0.0490768 0.021178 0.0433465
0.0413581 0.0460019 0.0397657
0.0473233 0.0208021 0.0492337
-0.00603851 0.048452 0.071259
0.0470949 0.020768 0.0498737
0.0469104 0.0207462 0.0503487
0.0464311 0.0207338 0.0512678
0.0461382 0.0207182 0.0518864
0.0295808 0.0456114 -0.0282354
0.0305419 0.0449411 0.00989991
-0.0105369 0.0480476 0.0773505
0.0455114 0.0207346 0.0528552
0.0448967 0.0207293 0.0537796
0.0445931 0.0207587 0.0542736
0.0359833 0.0299974 0.0242751
0.0177607 0.0486449 -0.0143623
-0.0037666 0.0477512 0.079324
0.0443938 0.0207151 0.0548168
0.0439134 0.0207182 0.0557398
0.0437825 0.0207182 0.0559665
-0.0262143 0.048978 0.0666045
0.0435067 0.020758 0.0562842
0.0379961 0.0211842 0.0626554
-0.0249925 0.0502808 0.0779549
0.037622 0.0212415 0.0628939
0.0363858 0.0212714 0.064178
0.0380602 0.0332424 0.0196777
0.0330769 0.0216678 0.0668424
0.0328613 0.0215695 0.0674825
0.0315775 0.0272899 0.0658262
0.0376918 0.0277361 0.0163158
0.0322227 0.0243514 0.0659887
0.037283 0.0277361 0.0170239
0.0371927 0.0277082 0.0173804
0.0485604 0.0217948 0.0412908
0.0247041 0.046229 -0.00258864
0.0239024 0.0458679 -0.0422001
0.0493693 0.0213875 0.0423566
0.0111065 0.0472421 0.066913
0.0494848 0.0213248 0.0428648
0.0487947 0.0212547 0.0440851
-0.00704687 0.0474616 0.0654055
0.0483669 0.0212407 0.045306
0.0437317 0.0247441 0.0554545
0.0447107 0.0208616 0.0539588
0.0390759 0.0211936 0.0618586
0.0260519 0.0453548 -0.0331232
0.0350884 0.0217297 0.0653451
0.0356248 0.0458773 0.0543961
0.0384463 0.0283021 0.0132091
-0.00592911 0.0478263 0.0642695
0.0382063 0.0283696 0.0134247
0.0377989 0.0281107 0.0151303
0.0168537 0.0449566 -0.0457915
0.0375308 0.0281412 0.0157946
0.0369382 0.0280261 0.0172212
0.0399321 0.0455904 -0.0300645
0.0275976 0.0461134 -0.0384004
0.0493491 0.0221051 0.0377248
0.0489917 0.0222028 0.0387939
0.0482614 0.0213493 0.0458089
0.0475101 0.021301 0.0478656
-0.018768 0.0481631 0.0715071
0.0473773 0.0212452 0.0483115
0.0473176 0.0211721 0.0489291
0.0457682 0.0287024 0.0509271
-0.00743718 0.0474655 0.0634816
0.0442895 0.0209209 0.0548883
0.0296251 0.0452577 -0.0425122
0.0425677 0.0211836 0.0573538
0.0421232 0.0211761 0.0578976
0.0417667 0.0210337 0.058458
0.0415381 0.0212117 0.0588372
0.0397308 0.0212631 0.0609843
0.0320934 0.0454985 0.00941261
0.0395821 0.0212969 0.0612704
0.0372808 0.0214848 0.0630278
0.0358479 0.0216878 0.0647095
0.0625074 0.046743 0.00389397
0.0356684 0.021797 0.0648873
0.0323856 0.0220769 0.0673066
0.0399694 0.0282033 0.012371
0.0392246 0.038185 0.0570611
0.0396221 0.0283477 0.0125059
0.0370665 0.028355 0.0163323
0.0404822 0.0331944 0.0576829
0.0436639 0.0317724 0.0533942
0.0357177 0.0283739 0.0185352
0.0492583 0.0223466 0.0374822
0.0485984 0.0222726 0.0397918
0.0484319 0.0222393 0.0403135
0.0367197 0.0362203 0.0225996
0.0495868 0.0217358 0.0428799
0.0490283 0.0217307 0.0438233
0.0487947 0.0217004 0.0440851
0.0476392 0.0277756 0.0458866
0.0472891 0.0213258 0.0486929
0.0161488 0.0463178 0.0699628
0.0469104 0.0212704 0.0503487
0.0448857 0.0211241 0.0536557
0.0483732 0.0232935 0.0402651
0.0498974 0.0454963 -0.0202248
0.0446778 0.0212576 0.0538158
0.0492583 0.0226242 0.0374822
0.0442546 0.0213053 0.0549488
0.040849 0.0213543 0.0596474
0.0328009 0.0454339 -0.0328128
0.0347246 0.0219486 0.0654553
0.0420106 0.0422112 0.0472355
0.0228067 0.0455651 -0.00330228
0.034027 0.0221822 0.0656635
0.0336087 0.0222536 0.0658881
0.0321964 0.0223087 0.0673009
0.039325 0.0285803 0.0124871
0.0380406 0.0287809 0.0133118
0.0373922 0.0287768 0.0152847
0.0370243 0.0287216 0.0163054
-0.0169077 0.048133 0.0674849
0.0368598 0.0286976 0.0167569
0.0364227 0.0287264 0.017314
0.0330996 0.024676 0.0653699
0.0355324 0.0287752 0.0187895
0.0484132 0.0217703 0.0448791
0.0482266 0.0217463 0.045369
0.038132 0.0272566 0.0613867
0.0480837 0.0217984 0.0458721
0.0458949 0.0241957 0.0513077
0.0479688 0.0217535 0.0463824
0.0478797 0.0216815 0.0467899
0.0477505 0.021764 0.0469937
0.0463729 0.0222613 0.0510799
0.0473233 0.0213277 0.0492337
0.0209326 0.0460845 -0.0176564
0.0428736 0.0213865 0.0571408
0.0395836 0.0217164 0.0613141
0.0393771 0.0217052 0.0615969
0.0530624 0.0561207 -0.0212068
0.00606871 0.0475119 0.0770887
0.0390747 0.0217192 0.0618706
0.0180954 0.0487443 -0.0166088
0.00912522 0.0475998 0.0637947
0.0355345 0.0222267 0.0648524
0.0346019 0.0222644 0.0653676
0.033123 0.0224457 0.0660292
0.0435932 0.0442924 0.0332944
0.0325661 0.0227217 0.0663606
0.0324152 0.0225317 0.0666552
0.0321273 0.022787 0.0668289
0.00514421 0.0481354 0.0728566
0.0318707 0.0225173 0.0676984
0.0316494 0.0227887 0.0677416
0.0190984 0.0475735 0.0744207
0.0380998 0.0292234 0.0128759
0.0378041 0.0291356 0.0137213
0.0377691 0.0289885 0.0139819
-0.00636744 0.0482428 0.0773288
0.0182724 0.047724 0.0655513
0.0351327 0.0288824 0.0192817
0.0348398 0.0289017 0.0196557
0.0489801 0.0227853 0.038764
0.0510055 0.0463025 -0.0312774
0.0487047 0.0227562 0.039441
0.0483696 0.0227173 0.0402881
0.0459204 0.0307244 0.0502635
0.04821 0.0227378 0.0407835
0.0493079 0.0219942 0.0423963
0.0539683 0.0563977 -0.0282091
0.0115076 0.0480913 0.0680683
0.0476168 0.0217888 0.0473586
0.0366146 0.0252955 0.0633818
0.0312757 0.0238059 0.0683622
0.0472561 0.0217753 0.0486834
0.0473059 0.0217218 0.0489637
0.0473233 0.0216781 0.0492337
0.0451479 0.021719 0.0529616
-0.0249222 0.0488256 0.0667666
0.0578863 0.0455884 -0.00846197
0.0449434 0.0216636 0.0533057
0.0426311 0.0216343 0.0574607
0.0424707 0.0217947 0.0577386
0.0401042 0.0217646 0.0605374
0.0485496 0.023311 0.0428297
0.0399276 0.0217646 0.0608433
0.0318819 0.0454773 0.00987897
0.0369153 0.0221855 0.0631608
-0.0203063 0.0496587 0.0751716
0.0366655 0.0223366 0.0633507
-0.0205433 0.0480578 0.070782
-0.0112353 0.0470645 0.0770601
0.0359588 0.0222409 0.0643462
0.0342763 0.0224278 0.0654317
-0.00352672 0.0481928 0.0698084
0.0339842 0.0226785 0.0654709
0.0317253 0.0228674 0.0674502
0.0376859 0.029372 0.0139261
0.048168 0.0277396 0.0428206
0.0376129 0.0293354 0.0143026
0.0372409 0.0292184 0.0157468
0.0404342 0.0302465 0.0587658
0.0415584 0.0402824 0.0233186
0.0370826 0.0292216 0.0163425
0.0395681 0.0257588 0.0603105
0.0367588 0.0290644 0.0168319
0.0441522 0.0391673 0.0422261
0.0365319 0.029209 0.017382
0.0319921 0.0453423 -0.0292119
0.0389363 0.0370761 0.0225603
0.0357177 0.0291965 0.0185352
0.0351327 0.0292354 0.0192817
0.0345385 0.0292645 0.0198442
0.0341869 0.0293821 0.0201865
0.0482098 0.0227931 0.0412982
0.0494446 0.0220763 0.0428261
0.0493631 0.0220968 0.0432339
0.0304442 0.0455567 -0.0277309
0.0461773 0.0253174 0.0504187
0.0491678 0.0222768 0.0433988
0.0431254 0.0378793 0.0493847
0.0486974 0.0223165 0.0440037
0.0485311 0.0222613 0.0443638
0.0440392 0.045206 -0.0322115
0.0481139 0.0222254 0.045331
0.0471615 0.0217978 0.0498918
0.0472983 0.0456727 -0.0291231
0.0466483 0.0217946 0.0508027
0.0461828 0.0218531 0.051509
0.0459805 0.0218109 0.0518484
0.0060499 0.0474143 0.0778813
0.0453717 0.0217268 0.0526806
0.044203 0.0217656 0.0548953
0.044039 0.0217914 0.0553444
-0.0128947 0.0483572 0.0659342
0.00795572 0.0473281 0.0689203
0.0439013 0.0217362 0.0557208
0.0435644 0.0217652 0.0563442
0.0180458 0.0462879 -0.0112063
0.0433463 0.0217652 0.056722
0.0431452 0.0217847 0.056937
0.0429208 0.0218528 0.057259
0.0473119 0.0321657 0.0403535
0.0376048 0.0222777 0.0625665
0.0374053 0.022307 0.0627122
0.0397221 0.0277245 0.0599992
0.036188 0.0223483 0.0639205
0.0352207 0.0224357 0.064996
0.0345473 0.022754 0.065229
0.0336801 0.0228336 0.0655644
0.0388584 0.0320799 0.0190952
0.032282 0.0229601 0.066486
0.0378778 0.0297635 0.0133437
0.0476983 0.0232568 0.0462951
0.048463 0.0252552 0.0403262
0.0369718 0.0293781 0.016883
0.0348398 0.0293727 0.0196557
0.0454424 0.0454756 -0.0223085
0.0397161 0.0442588 0.0230098
0.033564 0.0296231 0.0209655
0.0407965 0.037653 0.0531384
0.0493949 0.0232238 0.0377789
0.0472291 0.0222134 0.0482967
-0.013163 0.0481829 0.0685989
0.0442573 0.0218533 0.0545441
0.0404416 0.0222667 0.0602761
0.0402124 0.0221765 0.0605501
0.040034 0.0222147 0.0608391
0.0396219 0.0221851 0.0613443
0.039117 0.0222702 0.061814
0.0387837 0.0222358 0.0620246
0.0460459 0.0376698 0.0358461
0.0363686 0.0227095 0.0636077
0.0170975 0.0471765 0.0698863
0.036188 0.0227095 0.0639205
0.0468791 0.0345797 0.0363029
0.0347945 0.0227051 0.0651341
0.0384441 0.0454331 -0.037587
0.0330366 0.0232424 0.065779
0.0325057 0.0232164 0.0662485
0.0320964 0.0232385 0.0668074
0.0458892 0.0292042 0.0506775
0.0316483 0.023309 0.0677335
0.0377253 0.0298053 0.0138578
0.0376754 0.0297853 0.0143442
0.0344321 0.0292316 0.0634619
0.037544 0.0297482 0.0148219
0.0425486 0.0267888 0.0573369
0.0418358 0.0295257 0.0571383
0.0374167 0.0297011 0.0158324
0.0391178 0.0387878 0.0573888
0.0372963 0.0294898 0.0162009
0.0368797 0.0294305 0.0173225
0.0364167 0.0294898 0.0177243
0.0356388 0.0453786 -0.0276283
0.0351379 0.0296726 0.0193393
0.0403193 0.0464295 -0.039835
0.0398401 0.032149 0.058795
0.040549 0.0396825 0.0278171
0.0421357 0.0402378 0.0278438
0.0349694 0.0297987 0.0197313
-0.0288129 0.0485616 0.0733053
0.034557 0.0297163 0.0199456
0.0341372 0.0296871 0.0203393
0.0402741 0.0431638 0.0248432
0.0340027 0.0297704 0.0208056
0.0325488 0.0299043 0.0216239
0.0306569 0.0321871 0.0662207
0.0492103 0.0232605 0.0382652
0.0383451 0.0304472 0.0172844
0.0489955 0.0232407 0.0387706
0.0488426 0.0233079 0.0392021
0.0487047 0.0233079 0.039441
0.0155359 0.0471262 0.0658244
0.0399263 0.0387852 0.0552678
-0.00200738 0.0482435 0.0663769
0.0481789 0.0232245 0.0413184
0.0520624 0.0558102 -0.0187747
