ply
format ascii 1.0
comment Created by Open3D
element vertex 1554
property float x
property float y
property float z
end_header
0.0111842 0.0221391 0.054434
0.00996802 0.0216723 0.0568009
0.00975815 0.0216534 0.0570087
0.00921706 0.0216281 0.0574365
-0.019807 0.0429863 0.0696325
-0.000896343 0.0475655 0.0405279
0.00895634 0.0217078 0.0576832
0.00868256 0.0216688 0.0579039
0.0126456 0.0242102 0.050434
0.0554674 0.0459876 0.00203953
0.00848333 0.0216839 0.0582932
0.00624527 0.02116 0.0614424
0.055105 0.0458876 0.0118713
0.00603332 0.0212043 0.0617902
0.00265086 0.0275902 0.0628441
0.00579645 0.021158 0.0620095
0.0540952 0.0466478 0.0252907
0.00501722 0.0211074 0.0626903
0.00416488 0.0211452 0.0632649
-0.000354694 0.0206686 0.0673506
0.00205201 0.0457894 0.0190225
0.0501495 0.0460524 -0.00355042
-0.00134182 0.0206644 0.0679398
0.0350033 0.0474194 -0.0203247
-0.00173391 0.0206812 0.0680892
-0.00194482 0.0206939 0.0681532
-0.00880207 0.0211883 0.0705245
0.0500885 0.045295 -0.0176025
-0.00937568 0.0211826 0.0707856
-0.00986155 0.0211836 0.0709342
0.0355149 0.0462214 -0.0308968
-0.0101489 0.021192 0.0710616
-0.0144196 0.0213178 0.0727286
-0.0148675 0.0212383 0.0726697
0.00603572 0.0358682 0.0592155
-0.0193153 0.0216907 0.0731591
-0.0208904 0.0218792 0.0732025
0.00936486 0.0300265 0.0545222
0.0121032 0.0311806 0.0346584
-0.0214366 0.0221327 0.0734832
0.0481746 0.0456124 0.0177971
-0.044555 0.0269186 0.0637135
-0.00091803 0.0296182 0.0651932
-0.0450949 0.026994 0.0636788
0.0016271 0.0460635 0.0201916
0.051531 0.0459297 -0.00480988
-0.00180081 0.0595881 0.0253461
-0.0039962 0.027673 0.0672013
0.000474647 0.0221792 0.066179
-0.0454213 0.0270191 0.0637518
-0.0458557 0.0271539 0.0637716
-0.0768578 0.0341175 0.0502628
0.0461674 0.0453029 -0.0228442
-0.077922 0.0338556 0.0511082
0.0421998 0.0465788 -0.0249992
-0.0794591 0.0338304 0.0521111
0.010484 0.028046 0.027953
0.00467738 0.0395582 0.0601922
0.00999495 0.0279065 0.0288704
-0.000225775 0.0296247 0.0644472
0.00961418 0.0277214 0.0303219
0.0143003 0.0227565 0.0498252
-0.00944354 0.0346572 0.068268
0.013522 0.0226743 0.0509673
0.0130964 0.0226169 0.0511553
0.0125883 0.0226381 0.0513524
-0.027883 0.0466843 0.0688681
0.0121812 0.0227602 0.0515105
-0.0908617 0.0721997 0.0479557
0.0109499 0.022208 0.0548772
0.0107939 0.0221432 0.055383
0.0106819 0.0221479 0.055794
-0.00839181 0.0266471 0.0691618
-0.000157224 0.0376713 0.0625601
0.00804964 0.0306304 0.0562976
0.00824269 0.021685 0.0588486
0.00804008 0.0216702 0.05929
0.00608274 0.0478401 -0.0121721
0.00762491 0.0216048 0.0598248
0.00647593 0.0212999 0.0612708
0.00373958 0.0211799 0.0635434
0.003509 0.021187 0.063792
-0.00452442 0.0209045 0.0691229
-0.00532287 0.0211482 0.069485
0.0103839 0.0285233 0.0326873
-0.00785385 0.0211655 0.0702138
-0.0153013 0.0215544 0.0730644
-0.00256732 0.0615803 0.0361233
-0.00886169 0.0221888 0.0702607
-0.0158523 0.0216645 0.0732382
-0.0168276 0.0216985 0.0733394
-0.0194461 0.0220713 0.0733501
0.0032805 0.0281531 0.0620187
0.00117425 0.0467721 0.0388128
-0.0198645 0.022131 0.0733222
-0.0203385 0.0222248 0.0733573
0.0151305 0.0459876 0.0253281
0.0407155 0.0445421 -0.0302044
-0.0208787 0.022133 0.0733459
-0.0218495 0.0221849 0.0738305
-0.0221688 0.0220715 0.0739983
-0.076462 0.0342489 0.0499189
-0.0791847 0.0341474 0.0519527
-0.011669 0.0257843 0.0709384
-0.0797336 0.0341474 0.0522696
0.010328 0.0281143 0.0289091
0.00987359 0.0279095 0.0300952
0.0089907 0.0230265 0.0576249
0.00951277 0.0278198 0.0307076
0.0090169 0.027743 0.0313403
-0.0234544 0.0468898 0.0686206
0.00843605 0.0277558 0.031618
-0.00144993 0.0476142 0.0447157
-0.0774772 0.0355994 0.0501586
0.00721511 0.027807 0.032092
0.0131509 0.0228781 0.0508929
0.0128457 0.0228909 0.0510114
0.0125747 0.0230914 0.0508984
0.00198826 0.0475482 -0.00876894
-0.0019722 0.0462508 -0.00186357
0.014567 0.0465333 0.0354684
0.0124167 0.0229165 0.0511436
0.0119991 0.0228653 0.0516156
0.0105126 0.0221344 0.0562267
0.00997504 0.0221411 0.0567795
-0.0224318 0.034778 0.0704551
0.00978438 0.0222153 0.0569646
-0.00341012 0.0464645 0.0622442
0.00955468 0.0221367 0.0572224
-0.0162497 0.0248709 0.074045
-0.0149356 0.0390916 0.0676282
0.00907221 0.0221474 0.0577098
0.00712292 0.0216825 0.0604024
-0.00384585 0.0226292 0.0684136
0.00681812 0.0215191 0.0609
0.0066513 0.0216421 0.0613283
-0.080025 0.0392479 0.0471262
-0.0157571 0.0387164 0.0679871
0.00943035 0.0331235 0.0356627
0.00112598 0.0211891 0.0658896
0.000434928 0.0210217 0.0666061
0.000450535 0.0467173 -0.00372421
0.0527797 0.0460039 0.0272627
0.0192429 0.0456522 0.0353553
0.000137975 0.0212036 0.0668288
-0.000149243 0.0211892 0.0670588
-0.0161312 0.035754 0.0694733
-0.000407245 0.0211663 0.0673104
-0.000953427 0.0211548 0.0676771
0.0526413 0.0465097 0.0288725
-0.00182153 0.0212665 0.0680243
-0.00286836 0.0211635 0.0683978
0.00470555 0.0528007 0.0312315
7.12276e-06 0.0456265 0.0233208
-0.0031701 0.0211441 0.068572
-0.0104005 0.0216835 0.0709451
0.00230307 0.0476922 -0.00525566
-0.010832 0.021457 0.071148
-0.0113918 0.0216136 0.0712114
0.00763141 0.0462295 0.00979682
-0.0118784 0.0216182 0.0713826
0.00728851 0.0241519 0.0593583
-0.0124077 0.0215338 0.0717114
-0.0130937 0.0215338 0.0721074
-0.0134223 0.0216182 0.0722741
-0.000493476 0.0459015 0.0201458
-0.0164913 0.046246 0.0707204
-0.0139371 0.0215082 0.0727098
-0.0143887 0.0216681 0.0727858
-0.000783252 0.0568032 0.0370562
0.0331118 0.0471266 -0.025237
-0.0189889 0.0220959 0.0734325
-0.0775914 0.0347 0.0506864
-0.0777569 0.0346743 0.0508974
0.0142416 0.0471534 0.0187976
0.0536567 0.0461903 0.0164217
-0.0782509 0.034597 0.051529
0.0106847 0.0471405 0.0326869
-0.0788543 0.0345653 0.0518774
-0.0792926 0.0345842 0.0521882
0.0101125 0.0281551 0.0307656
0.00929394 0.0279723 0.0312959
0.00913192 0.0280217 0.0317358
0.0554658 0.0531491 0.00769851
0.0140935 0.0231808 0.0504064
-0.00643297 0.0246172 0.0689835
0.0133927 0.0231014 0.0506956
0.00909447 0.0466984 0.0263496
0.0130237 0.0231401 0.0507355
-0.0123582 0.028202 0.0703895
0.0116182 0.0227264 0.0538563
0.0111618 0.0226616 0.0544085
0.00882076 0.0221553 0.0580118
0.00849406 0.0221885 0.0587199
0.00835033 0.0221124 0.0589184
0.00621117 0.0216901 0.0619144
0.00587343 0.0215251 0.0620805
0.00527172 0.0214993 0.0625434
0.00514097 0.0217067 0.06276
0.00449753 0.0216873 0.0631982
0.00528782 0.0369981 0.0405948
-0.0363959 0.0484549 0.0648918
0.00314226 0.0216431 0.0640037
0.00208209 0.0216214 0.0647121
0.0540805 0.0560385 0.00888319
0.000350192 0.0212409 0.0665395
-0.00770821 0.0216952 0.0700373
-0.00176455 0.0471672 0.0534422
-0.00886198 0.0216579 0.070434
0.00261709 0.0457782 0.0278954
-0.00941208 0.0216195 0.0707035
0.0465555 0.0466407 -0.0169484
-0.00441607 0.0381423 0.0657348
-0.00987192 0.021701 0.0708247
-0.0559123 0.0523294 0.0608021
0.0124621 0.0261175 0.05054
-0.0131925 0.0217577 0.072049
-0.0168572 0.0221818 0.0735182
-0.0052044 0.0287622 0.0675525
-0.0209834 0.0224295 0.0735448
4.94421e-05 0.0458753 0.0637109
0.0171402 0.0459803 0.0373025
-0.0214108 0.02263 0.0738081
-0.0218222 0.0225624 0.0739829
0.0118864 0.0460136 0.0126518
-0.0763735 0.0351215 0.0495214
0.0456157 0.044772 -0.0252393
-0.0765411 0.0349363 0.0497336
-0.00836177 0.0296476 0.0693947
-0.0785252 0.0347555 0.0516874
0.010566 0.0283576 0.0299841
0.0104256 0.0282663 0.0304693
-0.00148083 0.059689 0.034832
0.00957434 0.0280968 0.0317113
0.00892477 0.0311293 0.0552381
0.0126635 0.0236541 0.0505392
0.0115394 0.0236453 0.0512267
0.00579645 0.0232203 0.0620095
0.00203875 0.041077 0.0601375
0.0116771 0.0230504 0.0533027
0.0106038 0.0226053 0.0558853
0.0103902 0.0224514 0.0562396
0.0126493 0.0292437 0.0545889
0.0102048 0.022716 0.0563301
0.00741284 0.0220551 0.0601525
0.00595041 0.0217932 0.0621515
0.00222548 0.0341096 0.0609535
-0.00125984 0.0366609 0.0633987
0.00150805 0.0216688 0.0652648
0.00508534 0.0473057 -0.0134438
0.000601177 0.0216544 0.0662792
0.000321948 0.0216368 0.0665173
-0.00332337 0.0217094 0.0685161
-0.0039003 0.0217084 0.0687626
-0.00440305 0.0216761 0.0689662
0.000694717 0.047736 0.0428771
-0.00585354 0.021724 0.0694861
-0.00638037 0.0216647 0.0696941
-0.00926553 0.0217734 0.07059
-0.0109122 0.0221907 0.0707902
0.00184782 0.0291975 0.063019
-0.0128487 0.0221967 0.0714464
-0.0139562 0.0220709 0.0722012
-0.0143505 0.0221338 0.0723711
-0.014595 0.0220081 0.0726278
-0.0149464 0.0220709 0.0727729
-0.017347 0.0222384 0.0736393
-0.0183838 0.0222689 0.0736606
0.028888 0.0465137 -0.0255697
0.0517497 0.0459941 0.0284347
-0.0191478 0.0223732 0.0736397
-0.0286528 0.0467387 0.0704672
-0.0219039 0.0227229 0.0741341
-0.0192653 0.0467238 0.0744774
-0.0773969 0.0352286 0.0503432
-0.0778665 0.0351765 0.0508452
-0.0779585 0.0351951 0.0512832
0.0110345 0.0285479 0.0300023
0.00972039 0.0281796 0.0323776
-0.00539128 0.0241213 0.0686612
0.00816947 0.0279428 0.0343122
-0.0113546 0.0291307 0.0702806
0.0114508 0.0229962 0.0541261
0.0108046 0.0227988 0.0553652
0.00950098 0.0344754 0.0577344
0.00993328 0.0226278 0.0566189
-0.0172914 0.0470102 0.0739921
0.00965284 0.0227027 0.0568962
0.0110091 0.0463646 0.0181236
0.0126213 0.02757 0.0544029
0.00944374 0.0225489 0.0572479
0.00928678 0.0226937 0.0573674
0.00403577 0.0463371 0.00656116
0.00902767 0.0226217 0.0577575
-0.00684421 0.0226953 0.0694519
0.00864691 0.0226601 0.0583513
0.00674131 0.0221667 0.0613485
0.00651554 0.0221421 0.061756
-0.00138809 0.0216632 0.0677279
-0.00738025 0.0321128 0.0681544
-0.0108715 0.028694 0.0699584
-0.00191059 0.0216897 0.0679141
-0.00227605 0.0217571 0.0680558
-0.000461915 0.029622 0.064732
-0.00805641 0.0219174 0.0701229
0.0175885 0.046173 0.0388046
-0.00929895 0.0221014 0.070465
-0.0112969 0.0231423 0.0705504
-0.0162971 0.0240122 0.0738645
-0.00953095 0.0219964 0.0706278
-0.00988544 0.0220972 0.0706785
-0.053893 0.0506523 0.0594052
-0.0193418 0.0376775 0.0692253
-0.0103776 0.0221873 0.0707124
0.00563462 0.0331486 0.0588264
-0.0119058 0.0222244 0.0709982
-0.0138465 0.0222595 0.0719647
-0.0147092 0.0222595 0.0724628
-0.0156581 0.0222595 0.0730106
-0.0194158 0.0227187 0.073756
-0.0198984 0.0227555 0.0737267
-0.0221339 0.0228383 0.0742091
0.0111398 0.0287178 0.0308653
0.0102664 0.0284318 0.0320623
-0.0121875 0.0461531 0.0628085
0.0100543 0.0283256 0.0326467
-0.00089127 0.0221033 0.0672101
0.0134488 0.023786 0.0504323
0.00542951 0.0461708 0.0131465
0.0130795 0.0238258 0.0504723
0.00776793 0.028141 0.0573494
0.0106741 0.0230872 0.055429
0.0104661 0.0231669 0.0557339
-0.00424755 0.0261954 0.0675197
0.00253187 0.0330044 0.0613539
-0.00123572 0.0518465 0.0393959
0.00845077 0.0225383 0.0587449
0.00803254 0.0226235 0.0593097
0.00595041 0.022185 0.0621515
0.00512604 0.0221495 0.0628419
6.67851e-05 0.0462502 0.059798
0.00259388 0.0221451 0.0642626
0.00171726 0.0221273 0.0648457
0.00148902 0.0220918 0.0651315
0.00157297 0.0463313 0.0307306
0.000994122 0.0221313 0.0656674
-0.00123936 0.021795 0.0675727
0.0557011 0.0488827 0.0129897
-0.0124664 0.0238532 0.0711679
-0.00481809 0.0221693 0.0689791
-0.0050422 0.0219278 0.0691909
-0.00537537 0.0221301 0.0692101
-0.0143543 0.0266306 0.0715651
-0.00779335 0.0291323 0.0691338
-0.00659044 0.022034 0.0696229
-0.0446697 0.047543 0.0658582
0.00971191 0.046733 0.0337681
-0.00693698 0.0221584 0.0697075
0.0137637 0.0470799 0.0184962
0.00691994 0.0243931 0.0602061
-0.0135284 0.0276627 0.0706263
-0.0118625 0.022658 0.0708192
-0.0123393 0.022605 0.070979
0.00971238 0.0311802 0.0544832
0.00194121 0.0456051 0.028786
-0.0128718 0.0225983 0.0712288
0.0022951 0.0473245 -0.00455824
-0.0135631 0.0225983 0.0716279
-0.0138841 0.0225811 0.0718017
-0.0144771 0.0225118 0.0720978
0.0531626 0.0459853 0.00550643
0.0015831 0.0466866 0.00578327
-0.0156156 0.0225383 0.0726397
-0.0168634 0.0226297 0.0734591
-0.0178199 0.0226894 0.0738353
0.0508964 0.0461667 0.00271562
-0.0213566 0.0231513 0.0743184
0.0474911 0.0456795 -0.0184124
-0.0776717 0.0362366 0.0488853
-0.0778836 0.0360507 0.0498158
-0.00190741 0.0331805 0.064884
0.0105387 0.0287108 0.0317897
0.010378 0.0286304 0.0322289
0.0110849 0.0326101 0.0356889
0.0135516 0.02419 0.0504499
0.0121342 0.0243239 0.0504695
0.0120307 0.024131 0.0506736
0.0113039 0.0242187 0.0513242
0.00121343 0.0421761 0.064286
0.0114022 0.0238631 0.0521912
0.00971171 0.0232307 0.0564774
0.00950533 0.0231301 0.0567966
0.00751445 0.0460947 0.0217577
0.00912375 0.0231594 0.0573027
-0.0182322 0.0469831 0.0673376
0.00756729 0.0227064 0.0596784
-0.0183032 0.037627 0.0687065
0.00694123 0.0224437 0.0608867
0.0026284 0.0321245 0.0618755
0.000713132 0.0222106 0.0659066
0.0456269 0.0440259 -0.0261118
0.000194915 0.0221613 0.0664175
-0.0028096 0.0251314 0.0671803
-0.000363115 0.0221254 0.0668936
-0.00134468 0.0221475 0.0674488
-0.00187273 0.0221254 0.0677652
0.00902289 0.0297588 0.0547484
-0.00193761 0.0247022 0.0668211
-0.00231406 0.0221321 0.0679912
-0.00258777 0.0220419 0.0681203
-0.00292528 0.0221302 0.068269
-0.00402784 0.0221693 0.0686823
-0.00668272 0.0222562 0.0695607
-0.00941731 0.0226125 0.0702851
-0.0158617 0.0417203 0.0664309
-0.0148129 0.0227784 0.072003
-0.0809173 0.0393324 0.047295
0.0114741 0.0245962 0.0508217
-0.0158312 0.0228186 0.0724178
-0.0190104 0.0229995 0.0739068
-0.0193413 0.0230399 0.0739247
-0.0194153 0.0355876 0.0697528
-0.00836914 0.0262137 0.0692835
-0.0780585 0.0365848 0.0489931
-0.0909729 0.0721307 0.0483086
0.0406377 0.0460524 -0.0261565
-0.0783492 0.0364509 0.0497383
0.000913495 0.046075 0.023144
0.0114132 0.0290172 0.0310538
0.0111807 0.0290961 0.0313901
0.0100815 0.0281735 0.0359507
0.00577453 0.030341 0.0589621
0.0522147 0.0456309 -0.010343
0.00966242 0.0280986 0.0359906
0.0115208 0.0238028 0.0532774
-0.00188542 0.0456255 0.0382699
0.0115348 0.0237911 0.0537601
-0.0052226 0.0341532 0.0668702
0.0112442 0.023764 0.0540433
0.0107637 0.0236351 0.0548692
0.00800446 0.0229112 0.0591181
0.00664022 0.0227272 0.0612529
0.00647677 0.0226311 0.0616167
0.00622602 0.0225995 0.0618962
-0.00890243 0.0367335 0.0679555
0.00595041 0.0225768 0.0621515
-0.0162748 0.0337684 0.0705377
0.0508079 0.0456645 -0.0061245
0.00562834 0.0226688 0.0623631
0.00512664 0.0225976 0.0627888
0.00410322 0.0226295 0.0634105
-0.0102567 0.0346412 0.0685526
0.00313531 0.0226687 0.0639067
-0.0173593 0.0461607 0.0714062
0.00252624 0.0226567 0.0642054
0.00671812 0.0246693 0.0604092
-0.00782086 0.0381857 0.0674851
0.00161212 0.0226507 0.0647589
-0.00267597 0.0222627 0.0680557
-0.0052239 0.0223708 0.0690649
-0.00640294 0.0226471 0.0692982
-0.000492834 0.026193 0.0651787
-0.00738221 0.0225894 0.0696566
0.0022121 0.0481198 0.0408983
-0.0130185 0.0231381 0.0711402
-0.0139708 0.0229382 0.07169
-0.0143669 0.0231836 0.0717263
-0.0153684 0.0231484 0.0719427
-0.016881 0.0231175 0.0733808
0.0274253 0.0460973 -0.0257644
0.0112587 0.0247348 0.0540292
-0.0173728 0.0230991 0.0738192
-0.0208288 0.0232926 0.0743504
0.0116042 0.0293006 0.0313478
0.0108183 0.0290248 0.0324365
0.0107055 0.0287114 0.0338295
0.00935508 0.028289 0.036399
0.0141277 0.0242828 0.0506176
0.0531966 0.0465749 0.0278534
-0.000253474 0.0301329 0.0644247
-0.0137977 0.0311707 0.0717922
0.0135416 0.0246093 0.0504652
0.0126007 0.0246442 0.0502676
0.00746645 0.0492135 -0.0141257
0.0121142 0.0247435 0.050279
-0.00385788 0.0477334 0.0389853
0.0111774 0.024634 0.0512818
0.011554 0.0241002 0.053316
0.0103138 0.0237718 0.0554176
0.0100794 0.023683 0.0558416
-0.0568347 0.0506346 0.0589675
0.00944201 0.0236954 0.0566715
0.0092607 0.0236634 0.0569109
0.00902882 0.0236644 0.0572103
0.00746057 0.0230564 0.059663
0.00108888 0.0226487 0.0652759
0.0431122 0.0464915 -0.0185977
6.19815e-05 0.0225837 0.0662671
-0.000872226 0.0225949 0.0668411
-0.00282206 0.0601255 0.035693
-0.00184053 0.0226171 0.0673886
-0.00209118 0.022484 0.0676026
-0.00285073 0.0226171 0.0679719
0.00163899 0.0466124 0.0049427
0.00206682 0.0421404 0.0643244
0.00816974 0.0356554 0.0582375
-0.00339144 0.022628 0.0682379
0.00278907 0.0277718 0.0625911
-0.00423717 0.0226867 0.0685337
-0.0148468 0.0296805 0.0717147
-0.00437411 0.0225385 0.0686897
-0.00486195 0.0226816 0.0687789
-0.0237441 0.0447648 0.0686724
-0.00729971 0.0227293 0.0695705
-0.00989227 0.0231842 0.0702591
-0.0115174 0.023156 0.07062
-0.0119213 0.023197 0.0706799
0.00275892 0.037865 0.043094
-0.015885 0.0233289 0.0719869
0.0491423 0.0456632 0.0374291
-0.0184033 0.0231654 0.0741337
-0.0204075 0.0233698 0.0744247
-0.0156819 0.048469 0.0620547
-0.0788394 0.0376369 0.0477119
-0.0792618 0.0376369 0.0479558
0.0430418 0.0463634 -0.0247347
-0.0798983 0.0375142 0.0488429
-0.0113015 0.0267071 0.0699641
0.00853414 0.0458175 0.0169544
0.0118497 0.0294131 0.0312637
0.0441016 0.0461232 -0.0189957
0.0403052 0.0466286 -0.0240785
0.0115227 0.0293581 0.0316834
-0.00487303 0.0266943 0.0676787
-0.0089 0.0471233 0.0688779
0.0111442 0.0292756 0.0322484
0.0109081 0.0288083 0.0343477
0.00423901 0.0469456 -0.000946276
0.0108127 0.0287425 0.035365
0.0102882 0.0286141 0.0360335
0.010058 0.0285729 0.0363395
0.0096396 0.0285138 0.0366581
0.00921977 0.0286061 0.036939
0.0145595 0.0243826 0.0508302
0.0141429 0.0247054 0.0507705
-0.0229946 0.0397072 0.0706646
0.0112796 0.0241398 0.0540325
-0.00537193 0.0306072 0.0677648
0.0106365 0.0241756 0.0548272
0.0104768 0.0240178 0.0551504
0.00843661 0.0234755 0.0581758
0.00731272 0.0233105 0.0595175
0.00648537 0.0231137 0.0612365
0.00527172 0.0228707 0.0625434
-0.0012521 0.0227058 0.0670027
-0.0268429 0.047022 0.0715008
-0.00217857 0.0227058 0.0675376
0.0101265 0.0332147 0.0353763
-0.00729185 0.0231453 0.0694698
-0.00798433 0.0231548 0.0696656
0.00949596 0.0326383 0.056294
-0.00547899 0.0324196 0.0671337
0.0101118 0.027566 0.0547452
0.0534076 0.0471346 -0.0195188
-0.00889883 0.0231689 0.0698876
-0.00931191 0.0231895 0.0700395
-0.0153734 0.0237052 0.0719225
-0.0159025 0.0236916 0.071997
-0.0166807 0.0235056 0.0728312
-0.000237169 0.045084 0.0183042
-0.0170034 0.0232694 0.0737296
-0.0179185 0.0232831 0.0742001
-0.0517607 0.0511045 0.0580588
-0.00289163 0.0241225 0.0673431
-0.0199143 0.0235542 0.0747751
0.00168032 0.0464968 0.0348833
-0.0203349 0.0234847 0.0747485
0.00261676 0.0508146 0.0384419
0.0522196 0.0442049 -0.0187751
-0.0797689 0.038127 0.0475557
-0.0802262 0.0380996 0.0479352
0.0120127 0.0295819 0.031516
0.0040961 0.0455262 0.0168609
0.011741 0.0295541 0.0317883
0.0116703 0.0296285 0.032214
0.0112598 0.02936 0.0328745
0.00625415 0.0479374 -0.0126175
0.0111068 0.0291095 0.0343484
0.0129245 0.025016 0.0504463
-0.0569043 0.0520089 0.060451
0.00819016 0.0461982 0.0319332
0.0100632 0.0241391 0.0557355
0.00746174 0.0236519 0.0592582
0.000372667 0.0423783 0.0642171
-0.0548254 0.0507415 0.0598281
0.00677438 0.0233578 0.0604633
0.00342974 0.0299355 0.0616438
0.00465837 0.0231731 0.0629437
-0.0134253 0.0292874 0.0712019
0.00450218 0.0230389 0.0631031
-0.00585392 0.0461552 0.0620385
-0.00938442 0.0296423 0.0696772
0.00412363 0.0231507 0.0632639
0.00307936 0.02316 0.0638284
-0.00791265 0.034014 0.0681539
0.0565213 0.0475602 -0.00145567
0.00213278 0.0231646 0.0643556
0.00187828 0.0231646 0.0645026
0.00532624 0.0476945 -0.00526904
0.0137422 0.046185 0.0263028
0.000943348 0.0230389 0.0651578
0.000632282 0.0231276 0.0653759
0.000433311 0.0229835 0.0656832
-0.000423316 0.023115 0.0663263
-0.000748978 0.0231842 0.0665044
-0.00100178 0.0230881 0.066685
-0.00193011 0.023111 0.0672127
-0.00237444 0.0231752 0.0674198
0.00308092 0.0281281 0.0622205
-0.00344652 0.022928 0.0681542
-0.00388847 0.023143 0.0682114
-0.00436437 0.0231987 0.0683707
0.041572 0.0463187 -0.0171312
0.00275734 0.0457933 0.0285457
0.0520443 0.045838 -0.0136511
-0.0263993 0.0467142 0.068329
-0.00481504 0.0231508 0.0685594
-0.00498244 0.0230112 0.0686945
-0.00627495 0.0232345 0.0690559
-0.00774344 0.0233181 0.0695573
0.00467135 0.0458593 0.028018
-0.0112488 0.0235266 0.0705804
-0.0118498 0.0236585 0.0707926
-0.0123464 0.0236368 0.0709336
-0.0128453 0.023538 0.0710403
-0.0129248 0.0237468 0.0712841
-0.013711 0.023538 0.0715401
0.0522245 0.046399 0.0109555
0.0121946 0.0461826 0.0257529
-0.0138546 0.0237497 0.0717384
-0.0144239 0.0236624 0.0717669
-0.0164943 0.0237471 0.0727775
-0.0168408 0.0236119 0.0738667
-0.0172867 0.0236208 0.0742511
-0.017347 0.0315349 0.0736393
-0.0193543 0.023586 0.0748752
0.0426178 0.0447502 -0.0270303
-0.00333943 0.0461049 -0.000554579
-0.0817282 0.0385923 0.0481096
0.0117348 0.046287 0.0162612
0.0119587 0.0297492 0.0318936
0.0116037 0.0296457 0.0328684
0.00969421 0.0291539 0.0366651
0.0135996 0.0251547 0.0507878
0.0112561 0.0251576 0.0516982
0.00833432 0.0467506 0.000615274
-0.0149328 0.0286591 0.0713602
-0.0173689 0.0463081 0.0728436
0.0110135 0.0245942 0.0542401
-0.00203726 0.0459882 0.0624908
0.00609198 0.0485692 0.0394954
0.0107414 0.0247122 0.0544202
0.00944201 0.0241014 0.0566715
-0.0133892 0.0346476 0.0698789
0.00924528 0.0242176 0.0568082
0.0090216 0.0241036 0.0571837
0.00877048 0.0242085 0.0574519
0.00853025 0.0241306 0.0577918
0.000860246 0.0232626 0.0650903
-0.00167791 0.0232482 0.0670176
0.0100618 0.0311322 0.0542352
0.0471071 0.0452591 0.0222239
-0.00830438 0.0236728 0.0696656
-0.0108465 0.0236834 0.0705214
-0.0134234 0.0238054 0.0716435
0.043532 0.0451251 -0.0260954
0.00598481 0.0306646 0.0586676
-0.0164932 0.0237317 0.0733773
0.0361861 0.0463539 -0.0279357
-0.0796382 0.0420807 0.0460946
-0.0188885 0.0236922 0.0749912
-0.0813689 0.0392417 0.0474787
0.0071831 0.0462233 0.0255286
0.0622028 0.0596259 -0.0167159
-0.0082686 0.0246143 0.0696681
-0.0818795 0.0391963 0.047735
-0.0393587 0.0482038 0.0648414
0.0546633 0.0457304 0.00602563
-0.0822187 0.0392104 0.0478732
0.0425805 0.0466464 -0.013672
-0.000754535 0.0465565 0.00436162
0.0116019 0.0297226 0.0339086
0.00907426 0.0478099 0.037254
0.0114195 0.0296296 0.0342256
0.0113184 0.0295729 0.0345149
0.00869504 0.0457979 0.0177852
0.010935 0.0293231 0.0352559
0.00562493 0.0457797 0.0187495
0.0481583 0.045796 0.0154971
-0.0016646 0.0357427 0.0640077
0.0149272 0.0249246 0.0509643
-0.0237487 0.0375423 0.0717928
0.0145838 0.0251659 0.0510279
0.0141663 0.0251278 0.0509995
0.00504367 0.0457788 0.0199512
0.0120648 0.0256824 0.0503845
0.0113071 0.0256658 0.0504563
0.0110786 0.0255689 0.0508384
0.0103435 0.0247243 0.054852
0.0100799 0.0245963 0.0558029
0.00254021 0.0475806 -0.00920308
0.00805211 0.0241935 0.05834
0.00705538 0.0241419 0.059765
0.00551298 0.0235804 0.0621732
0.00514211 0.0237019 0.0624258
-0.00485727 0.0601255 0.0364061
0.0040727 0.0236025 0.0632191
0.00366207 0.0236947 0.0634232
0.00340533 0.0235564 0.0636209
0.0060273 0.0458722 0.0301796
-0.000389427 0.0316227 0.0641952
0.00304813 0.0236608 0.0638015
0.00213278 0.0236544 0.0643556
0.00174483 0.0237164 0.0644872
-0.00198726 0.0266386 0.0662147
-0.0033055 0.0336544 0.0656479
-0.0149626 0.02674 0.0715121
0.000564037 0.0235707 0.0652036
0.0107644 0.0310825 0.0364321
0.0653743 0.056498 -0.00391113
0.000172985 0.0237203 0.0653973
-0.00362414 0.0233739 0.0680258
-0.00538511 0.0236264 0.0687105
0.010645 0.0316743 0.0538215
-0.00592263 0.023719 0.068858
0.00810587 0.0341415 0.0582281
-0.00682912 0.0236161 0.0692065
-0.00363979 0.060614 0.0360496
-0.0073487 0.0236894 0.0693679
-0.00781059 0.023691 0.069548
-0.0148497 0.023966 0.072082
-0.0152213 0.0241229 0.0722677
-0.0183105 0.0237545 0.0749462
-0.025311 0.0468013 0.0687303
-0.0189313 0.0237827 0.0751892
-0.0794572 0.0392479 0.0467984
-0.0805248 0.0393042 0.0471838
0.0121628 0.0300771 0.032815
0.012078 0.0300551 0.0332873
0.00377646 0.0375725 0.0419293
0.000598426 0.0481888 0.0433022
0.0110246 0.0297217 0.0352427
0.010634 0.0295762 0.0358916
0.0102648 0.0296193 0.0364222
-0.0143405 0.032544 0.0712685
0.0125232 0.0256584 0.0505048
-0.0374359 0.0486951 0.0654923
0.011502 0.0251328 0.0529419
0.0116204 0.0251085 0.0533931
-0.0303897 0.0468389 0.0712391
0.0116461 0.0251044 0.0538113
0.00928422 0.0244647 0.0569358
0.00874965 0.0246475 0.057487
0.00173477 0.0417203 0.0599955
0.0471383 0.0450378 -0.022481
0.00677335 0.0241515 0.0603629
0.00492295 0.0322097 0.059627
0.00651876 0.0241178 0.0607457
0.00428792 0.0238136 0.0629959
-0.000859317 0.0236732 0.0663471
-0.00185023 0.0237034 0.0669323
-0.001379 0.0465013 0.00270141
-0.0119653 0.0391917 0.0670103
0.00222095 0.0355587 0.0610139
-0.00405148 0.0235975 0.0681571
0.00782804 0.0462637 0.0250408
-0.0106169 0.0239387 0.0705619
0.00911438 0.0331844 0.0359221
-0.00177113 0.038139 0.0639826
0.00214836 0.0296824 0.0627465
-0.0108515 0.0241129 0.0707936
0.0546108 0.0457754 0.00992422
-0.0118367 0.024177 0.0713322
-0.0123137 0.0240522 0.0714031
-0.0127017 0.0239956 0.0715347
-0.0128343 0.0241822 0.0718191
0.055163 0.0456255 0.00533299
-0.0133223 0.0241622 0.0719219
-0.0138465 0.0240524 0.0719647
-0.0148896 0.0241948 0.072259
-0.0154327 0.024261 0.072842
-0.0158952 0.0241319 0.0733092
0.000219466 0.0468424 0.0378629
-0.0161441 0.0239956 0.0735221
-0.0166268 0.0239387 0.0740318
-0.016901 0.0240799 0.0743312
0.000637429 0.0451228 0.0168948
-0.0184962 0.0241083 0.0752266
-0.0188392 0.0241082 0.0754246
-0.0797411 0.0395757 0.0469623
-0.0801327 0.0396041 0.047073
-0.0808292 0.0396751 0.0471864
-0.0814524 0.0396894 0.0474885
-0.0160269 0.0319912 0.072704
0.0125043 0.0302142 0.0327333
0.0120663 0.030197 0.0337175
-0.00838304 0.0256666 0.0694867
0.0114027 0.0298989 0.0346395
-0.00882903 0.0465112 0.0685483
0.0105025 0.0298032 0.0361984
0.00966362 0.0296807 0.0369137
0.0136459 0.0257224 0.0510112
0.0128369 0.0257136 0.0506701
0.00561246 0.0281508 0.0597486
0.0110885 0.025599 0.0521414
0.0016704 0.0458293 0.0342539
0.0111136 0.0252517 0.0543538
0.00973942 0.030756 0.0379669
0.0105052 0.0248537 0.0554803
0.0041321 0.0463179 0.0618926
0.0104661 0.0247963 0.0557339
0.00848249 0.0246679 0.0578029
-0.00834673 0.0371413 0.0677117
0.00800139 0.0246493 0.0583281
0.00763108 0.0246367 0.0588223
0.00636237 0.0241786 0.0609899
0.00612139 0.0241402 0.061283
0.00583031 0.024121 0.061528
-0.0140299 0.0288047 0.0711468
0.00703559 0.0270379 0.0587537
-0.00833815 0.0291757 0.0693041
0.0506711 0.0459324 -0.00108029
-0.00218957 0.023793 0.0670821
-0.00643628 0.0241607 0.0690028
-0.000425875 0.060238 0.0338862
-0.00684245 0.0241474 0.0691333
0.01259 0.0267996 0.0506971
0.00642564 0.0292096 0.058644
0.0107302 0.0462151 0.0162061
-0.00736605 0.024178 0.0693138
-0.0194469 0.0352129 0.0699442
-0.00931191 0.0241786 0.0700395
-0.0163953 0.0242208 0.074158
-0.0784632 0.0400181 0.0457627
0.00914344 0.0326345 0.0563532
-0.079814 0.0401249 0.0467735
-0.0263401 0.0474368 0.071961
-0.0803483 0.0401536 0.0469665
0.00523249 0.0460364 0.0207659
-0.0812761 0.0402113 0.0472711
-0.0172887 0.0256926 0.0741541
-0.081812 0.04024 0.0474651
-0.00237269 0.029153 0.066264
0.00951051 0.0464184 0.0349236
-0.0822059 0.0401041 0.0475771
0.0119297 0.0302023 0.0341043
0.0501854 0.0459486 0.0100543
0.0110977 0.0301512 0.0352774
0.0515357 0.0458793 0.00742724
0.0125875 0.0461412 0.0256416
0.0108369 0.03 0.0355435
0.0100213 0.0298266 0.0367072
0.014666 0.0256281 0.0510767
0.0128369 0.0259249 0.0506701
0.0121183 0.02619 0.0504499
0.0113034 0.0257404 0.0527101
-0.00036932 0.0603536 0.0341614
0.011554 0.0255517 0.053316
0.0070821 0.0460129 0.0308601
0.0106528 0.0250176 0.0558801
0.0111488 0.0463734 0.00129976
0.0103902 0.0248844 0.0562396
0.0270357 0.0458398 -0.0258859
0.0100031 0.0248266 0.056694
0.0361967 0.0470154 -0.017434
0.00927328 0.0461907 0.0145069
-0.090757 0.073078 0.0479529
0.00704958 0.024676 0.0597977
0.000549816 0.0465224 0.00372402
0.00463206 0.0241926 0.0627202
0.00416123 0.0242103 0.0629997
0.00332529 0.0241733 0.0635517
0.00305173 0.0241421 0.0637558
0.002666 0.024215 0.0639612
0.00126275 0.0242544 0.06455
0.0517048 0.0455203 -0.0172656
0.00106334 0.0241793 0.0647037
0.00998319 0.0461258 0.0134042
-0.000524962 0.0241599 0.0656976
0.0093802 0.0466837 0.034306
-0.00100537 0.0241681 0.066306
-0.0012872 0.0241936 0.0665226
-0.0191387 0.0280827 0.0723643
0.0511542 0.0465531 0.0108518
-0.00151251 0.0241839 0.0666912
-0.00251622 0.0242082 0.0671744
-0.0788902 0.0406756 0.0460092
-0.0034358 0.0240923 0.0676476
0.0521554 0.0475739 0.0332812
-0.0229918 0.0471534 0.0687385
-0.00387581 0.0241394 0.067844
-0.00448443 0.0241442 0.0681761
0.0471942 0.0452913 -0.0211854
-0.00487468 0.0241247 0.0684014
-0.0554053 0.0508763 0.0600475
0.00711331 0.0484361 -0.0124207
0.00401819 0.0311265 0.0608037
-0.00281256 0.0376164 0.0647667
-0.00590879 0.0241926 0.068806
-0.0145229 0.024422 0.0724707
-0.0146952 0.024422 0.0725702
-0.0153909 0.0243257 0.0733567
0.0395558 0.0462669 -0.0157939
0.0140396 0.0459757 0.0252651
-0.0155645 0.0242775 0.0736494
-0.0820971 0.0404046 0.0476297
0.012537 0.0306356 0.0339845
0.0109509 0.0301862 0.0357086
0.00269142 0.0469859 0.00826107
0.00959556 0.0299676 0.0373571
0.0093104 0.0299531 0.0375795
0.0095357 0.0465693 -0.000540228
0.0547508 0.0457617 -0.00112627
0.00509556 0.0371883 0.0598969
0.0151799 0.0461943 0.0148303
0.0145667 0.0257573 0.0511725
0.0115594 0.0266719 0.0502991
0.00657952 0.0456772 0.016755
0.0107093 0.0266221 0.0503973
-0.00632678 0.0305962 0.0682727
0.00876067 0.0249997 0.0575268
0.00856601 0.0251903 0.0577835
0.00829243 0.025143 0.0580281
0.00802866 0.0251425 0.0582814
-0.00468967 0.0461168 -0.00860849
0.000460971 0.0469644 -0.0058087
0.00691994 0.0246912 0.0602061
0.00163739 0.0371364 0.0613315
-0.00679832 0.0267161 0.0684959
0.0065062 0.024618 0.0607337
-0.0133856 0.0306809 0.0716525
0.00570843 0.0459637 0.0278812
0.00622925 0.0246453 0.0610206
0.00599604 0.0246164 0.0612303
0.00200913 0.0280366 0.0631569
0.00572095 0.0247129 0.0614262
0.00551983 0.0246242 0.0616688
0.00486805 0.0243296 0.06243
-0.00525346 0.0242713 0.0685046
0.00419946 0.0462033 0.0303112
-0.00956887 0.0246731 0.0701878
0.00466662 0.0471479 0.0313983
-0.010259 0.0247373 0.0705285
-0.0109393 0.0246731 0.070979
-0.0114074 0.0246832 0.0713648
-0.0117958 0.0244753 0.0714736
-0.0128672 0.024695 0.0721614
-0.0138681 0.0246547 0.0723525
-0.016089 0.0414083 0.0666776
-0.0145449 0.0246767 0.0726566
-0.0149016 0.0246794 0.0733388
0.0491768 0.0462114 -0.0141317
-0.0151712 0.0245595 0.0734801
-0.0153601 0.0246388 0.0736662
-0.017363 0.0412708 0.0677596
0.0028253 0.0383042 0.0431712
-0.0163917 0.0246082 0.07416
0.00101988 0.0476699 0.0408264
-0.0173994 0.0246326 0.0744779
-0.0187746 0.0247479 0.0753642
-0.00145716 0.0271469 0.0657519
-0.0782847 0.0407047 0.0455441
-0.0785696 0.0407047 0.0457086
-0.0794061 0.040661 0.0463647
-0.0799216 0.0406464 0.0467201
-0.00252397 0.0457115 0.00607603
0.0485979 0.046139 0.0382988
-0.0804561 0.0406756 0.0469132
-0.081812 0.0407338 0.0474651
-0.0203413 0.047083 0.0598951
0.0118839 0.0306064 0.0344771
0.0618238 0.0600738 -0.0165259
0.011562 0.030675 0.0348747
-0.0113572 0.0276678 0.0699171
0.0111827 0.0305964 0.0354016
0.00836186 0.0463911 0.0350094
0.0142003 0.0260938 0.0511531
-0.016881 0.0465351 0.0698677
0.050277 0.0442326 -0.019328
0.0120862 0.0265236 0.0504107
0.0407549 0.0464947 -0.025031
0.00231037 0.0536109 0.0319215
0.01163 0.0255543 0.0544845
0.0113428 0.0255249 0.0547658
0.0075886 0.0251406 0.0588386
0.00450362 0.0560309 0.0362555
0.00743805 0.0251966 0.0590987
0.00728851 0.0251522 0.0593583
0.00519639 0.0247269 0.0619171
0.00504578 0.0245556 0.0622119
0.00411788 0.0460423 0.0238727
0.00477163 0.0246679 0.0623933
0.00452306 0.0245721 0.0627061
0.00110367 0.0401332 0.0607351
-0.0108296 0.0351619 0.0689527
0.052566 0.0460252 0.00140527
0.00316021 0.024595 0.0635315
0.0540413 0.0463056 0.0153337
0.00290509 0.0246932 0.0636788
0.0035685 0.0605269 0.0331581
0.00202934 0.0246568 0.0642174
0.00116575 0.0246393 0.0645098
0.000684482 0.024659 0.0647107
1.63782e-05 0.0245556 0.0651157
-0.000911495 0.0431746 0.0647276
-0.00289375 0.0246585 0.0672577
-0.00390924 0.0246687 0.0677093
0.00453925 0.0311902 0.060195
0.0516662 0.0459978 0.0288678
-0.00488865 0.0246834 0.068217
-0.00550827 0.0244675 0.0686517
0.00810564 0.0475601 -0.00641184
0.00601298 0.0401647 0.0452568
-0.00697363 0.024654 0.0691513
-0.0119429 0.024713 0.0717894
-0.0785696 0.0411982 0.0457086
0.00265864 0.0461624 0.0227137
0.0451204 0.0452962 -0.0244914
-0.0803138 0.0411687 0.046831
-0.0807947 0.0411834 0.047051
-0.00096477 0.0468653 0.0442047
-0.0819206 0.0410924 0.0474124
0.0533841 0.0460374 0.01248
0.0105393 0.030573 0.0368122
0.0100368 0.0303879 0.0373525
0.0139537 0.0262921 0.0510645
0.00872905 0.0327587 0.0373955
0.0120397 0.0257268 0.0549024
0.0116545 0.0256703 0.0548169
0.03736 0.0458398 -0.0318466
0.0104222 0.0252558 0.0571449
0.0430291 0.0465518 -0.0231108
0.010056 0.0253002 0.0571831
0.00704132 0.0251778 0.0597896
0.00663497 0.0251454 0.0603822
0.00618503 0.0251719 0.0607892
0.00222477 0.0247914 0.0640716
-0.00123645 0.0600933 0.031833
-0.00166029 0.0463702 0.00442268
-0.00155559 0.0246874 0.0666584
-0.00244602 0.0246044 0.0671147
-0.00363963 0.0247617 0.0675729
-0.0134215 0.0249962 0.0721812
-0.0147786 0.0346534 0.070078
-0.00309454 0.0474024 0.038968
-0.0143687 0.0251914 0.0722277
-0.0149067 0.0250168 0.0728943
0.0106335 0.0461977 0.0154536
-0.018311 0.0251824 0.0749052
0.0385327 0.0465181 -0.0203993
-0.00111093 0.046881 -0.00582492
-0.0791394 0.0413626 0.0460376
0.0125257 0.0311597 0.0343375
0.0117474 0.0311224 0.0349312
0.0114719 0.0311 0.0351769
0.0112436 0.0311371 0.0354473
0.0289967 0.0467286 -0.0277109
0.0545215 0.0461648 0.0185205
0.00883095 0.0306206 0.0385491
0.00851832 0.0306205 0.0387297
0.0139537 0.0265012 0.0510645
0.00709733 0.0473416 -0.00507914
0.0121903 0.0271414 0.0504276
0.00922345 0.0256806 0.0574905
0.00829243 0.025647 0.0580281
0.011533 0.0462707 0.0244029
0.00802204 0.0256473 0.0583491
0.00773997 0.0256876 0.058578
0.00529606 0.0251827 0.0615478
0.00505651 0.0251427 0.0618401
0.00461886 0.0251137 0.0622996
-0.00287419 0.0461299 0.0102042
0.00410812 0.02509 0.0627533
0.00372553 0.0252169 0.0629549
0.00350853 0.0250821 0.0631572
0.00164738 0.0251211 0.0642702
0.000530088 0.0250777 0.0647036
-0.0067938 0.0251591 0.068998
0.00358905 0.0456772 0.0184815
-0.00697363 0.0249493 0.0691513
-0.00736794 0.0251914 0.0692058
-0.00783024 0.0251542 0.0693985
-0.00835941 0.0250947 0.0696435
-0.00883065 0.0251418 0.0697847
-0.00935488 0.0252174 0.0699488
-0.00992643 0.0251957 0.0702095
-0.0106169 0.0252275 0.0705619
-0.0109267 0.0251877 0.0708398
0.0101312 0.0260269 0.0569279
-0.0381594 0.0472916 0.0633696
-0.0119215 0.0251817 0.0717771
-0.0153701 0.0252414 0.0733293
0.0021512 0.0316256 0.0624109
0.054803 0.0575496 0.0113144
0.0552016 0.0541984 0.00744693
-0.00436249 0.0400789 0.0660272
-0.015377 0.0250388 0.0736567
0.00917838 0.0266388 0.0568238
-0.0093532 0.0287001 0.069486
-0.0158115 0.0251299 0.0738613
-0.016421 0.0250687 0.0741439
-0.0789249 0.0417513 0.0456828
-0.0792461 0.0417214 0.0459837
0.0657177 0.0565643 -0.00396508
-0.0794243 0.0416916 0.046202
0.0451459 0.0448525 -0.0252567
-0.0803138 0.0416618 0.046831
0.0404142 0.0443066 -0.0317625
0.0399718 0.0445171 -0.0323154
0.0395061 0.0447578 -0.0329702
0.0390991 0.0449082 -0.0333126
0.026165 0.0450586 -0.0264224
0.0256727 0.0449383 -0.0256763
0.0105684 0.0311029 0.0368532
-0.0102816 0.0395878 0.0671352
0.0103586 0.0311635 0.0369743
0.00945621 0.0307409 0.0381881
0.00810148 0.0307409 0.0389703
0.0125857 0.0271621 0.0505263
0.0103382 0.027372 0.0506116
-0.0199518 0.0391185 0.070178
0.00743805 0.0256976 0.0590987
-0.000681222 0.0426945 0.0645561
-0.0789351 0.042701 0.0454193
0.00698367 0.0255436 0.0598229
0.00654919 0.0256311 0.060247
0.00222865 0.0252144 0.0639539
-0.00134542 0.0251239 0.0663638
-0.00159868 0.0249958 0.0666255
-0.0019383 0.0250862 0.0667754
-0.00239746 0.0251434 0.0669712
-0.00186 0.0296463 0.0659681
0.00653771 0.0375356 0.0404505
0.0099495 0.0463292 0.0329381
0.00174256 0.0467014 0.0328844
-0.00331458 0.0251591 0.0673659
0.0340759 0.0467299 -0.0268329
0.028783 0.0466395 -0.0247008
-0.00372804 0.0251842 0.0675084
-0.00440998 0.0251767 0.067856
-0.00478138 0.0252472 0.0680011
-0.00975832 0.0253266 0.0700663
0.0481799 0.0456777 -0.0177708
-0.00501462 0.0614885 0.0371898
-0.0112072 0.0252966 0.0710182
-0.0128236 0.0252665 0.072067
0.00423328 0.0396508 0.0602177
-0.0133774 0.0253567 0.0720403
-0.0143539 0.0256221 0.071969
-0.0148378 0.0256901 0.0719885
-0.0156664 0.0252966 0.0735927
0.057125 0.0527014 0.00681755
-0.0802789 0.0420206 0.0466955
-0.00344844 0.0261752 0.0671931
0.0401341 0.0446231 -0.0314853
0.00868649 0.0328106 0.0571655
0.0396905 0.0448353 -0.0320375
0.0385113 0.0452294 -0.0328577
0.0381005 0.045381 -0.0331979
0.00575774 0.0475728 0.0394574
0.026776 0.0454113 -0.0267752
0.0099642 0.0310422 0.0376639
0.0061067 0.0261698 0.0602962
0.04912 0.0452072 0.0217546
0.00942658 0.0311172 0.0381475
0.0091138 0.0311172 0.0383281
0.0536104 0.0471617 -0.0202133
0.00851832 0.0311019 0.0387297
0.00778885 0.0311019 0.0391508
0.0130198 0.0271922 0.0505645
0.0019254 0.0474489 -0.00596137
0.00411767 0.0389754 0.0439646
-0.0154289 0.0374951 0.0688368
0.0120821 0.027526 0.0502398
0.0107371 0.0276166 0.0502658
0.0115219 0.0259493 0.0561635
-0.013382 0.0272119 0.070715
-0.00216938 0.0459172 0.00841163
0.010544 0.025919 0.0568435
0.00993378 0.025919 0.0571959
-0.0468462 0.0488981 0.0596092
0.00863362 0.0261543 0.0578183
-0.00134189 0.0477327 0.0413047
0.00829243 0.0261509 0.0580281
-0.000402089 0.0286634 0.0647799
-0.025316 0.0453718 0.0686562
-0.0585486 0.0504758 0.0585136
0.00620434 0.0257307 0.0604461
-0.0117481 0.031847 0.0700603
0.0106679 0.0470213 0.0333316
0.00544744 0.0255552 0.0611717
0.0140572 0.0281031 0.0556235
0.0625139 0.05512 0.000858022
0.00500031 0.0254946 0.0616608
0.00447049 0.0255327 0.0621977
0.00774732 0.0457607 0.0175819
0.00274419 0.025343 0.0635408
0.00265244 0.0405118 0.0601681
-0.00117683 0.0252824 0.0660355
0.00201597 0.0506218 0.0392506
-0.00168484 0.0252218 0.0665597
0.000111324 0.046264 0.000397615
4.07686e-06 0.044842 0.0167408
-0.00715777 0.0254037 0.0690267
0.0395096 0.0465291 -0.0232727
-0.00889186 0.0255937 0.0696815
-0.0193831 0.0420718 0.0695609
-0.00938059 0.0256043 0.0698482
-0.00248267 0.0460219 0.0113638
-0.0199039 0.0462913 0.0718439
-0.0108562 0.0257499 0.0704115
-0.0114532 0.0254643 0.0712757
-0.0117885 0.025647 0.0714198
-0.012369 0.0256861 0.071821
-0.0127626 0.0256697 0.0720029
-0.0201618 0.0269119 0.0738788
0.0543952 0.0463759 0.0218266
-0.0158964 0.0257915 0.072975
-0.0159522 0.0256809 0.0732382
-0.00132904 0.0600129 0.0323484
-0.0167553 0.0256622 0.0739616
-0.0181417 0.0257153 0.07456
-0.0187385 0.0257384 0.0749431
-0.0189554 0.0256518 0.0751452
-0.0786031 0.0424405 0.0453815
-0.00247692 0.046237 -0.00272688
-0.0797452 0.0426055 0.0460409
-0.0799235 0.0424102 0.0462593
-0.0801733 0.0426055 0.046288
0.0420165 0.0439005 -0.0285306
-0.0128562 0.02917 0.0709311
-0.000418413 0.0457382 0.0194096
-0.00547715 0.0421624 0.0658913
0.0415857 0.0441144 -0.0290902
0.0398339 0.0449698 -0.031312
0.0394303 0.0451225 -0.0316563
0.00265921 0.0459769 0.0249074
0.0270867 0.0457716 -0.0263195
0.0266158 0.0456113 -0.0261053
0.0104815 0.0315727 0.0367302
0.0125819 0.0275257 0.0503554
0.012782 0.0263342 0.0547432
0.0107038 0.0262426 0.0562894
0.00777379 0.0262341 0.05852
0.00755199 0.0261597 0.058802
0.00712805 0.026083 0.0593354
0.00689252 0.026037 0.0596446
0.0567863 0.0455748 -0.00357168
0.00416402 0.0257563 0.0623515
-0.00237269 0.0281663 0.066264
0.00395046 0.025601 0.0626134
0.00363511 0.0256894 0.0628339
0.00248845 0.0256384 0.0636884
0.00206224 0.0256384 0.0639345
0.00121286 0.0256689 0.0643094
0.000703438 0.0256997 0.064488
0.00019075 0.0256997 0.064784
-0.00132894 0.0463337 0.0642758
-0.000236488 0.0256996 0.0650307
-0.000985262 0.0255815 0.0657228
-0.00126213 0.0257061 0.0659693
-0.00182803 0.0257202 0.0664884
-0.00136321 0.0462972 0.00113347
0.000960635 0.0384468 0.0622611
-0.00199648 0.0254933 0.0667012
-0.00336439 0.025656 0.0672655
-0.004357 0.0256179 0.0677176
-0.00489367 0.0256187 0.0679505
-0.00727619 0.0257531 0.0690181
-0.0143545 0.026024 0.0718346
-0.0153488 0.0262211 0.0717928
-0.0157978 0.0261509 0.0719366
0.0342542 0.0476564 -0.0207004
-0.0162109 0.0258301 0.0733875
-0.0163934 0.0412716 0.0669303
0.0443405 0.0432845 -0.0262928
0.00126694 0.0456141 0.0154343
0.0144416 0.0458522 0.0125622
0.0439984 0.0433769 -0.0264417
0.0436551 0.0436356 -0.0265899
0.0424925 0.0441144 -0.0277085
0.010331 0.0301997 0.0540798
0.00168188 0.0516588 0.0390393
0.040836 0.0447007 -0.0295811
0.0511387 0.0458408 -0.0122044
0.0403979 0.0449162 -0.0301365
0.0580048 0.0547233 0.00577075
-0.0353158 0.0469831 0.0709655
0.0399774 0.0451009 -0.0305865
0.0392336 0.0453164 -0.0309654
0.0541699 0.0458802 0.0124304
-0.0148654 0.0302535 0.0719525
0.00764918 0.0321741 0.0559361
0.0388279 0.0454703 -0.0313085
0.0380964 0.045655 -0.031579
0.0377071 0.0457782 -0.0318161
0.036641 0.0459937 -0.0320089
0.036116 0.0460861 -0.0320522
0.0275292 0.0459629 -0.0266327
-0.00489503 0.0460553 -0.00825898
-0.016868 0.0336213 0.0707069
0.0121962 0.0320525 0.0349434
0.0114866 0.0318323 0.0356303
0.00996854 0.0317532 0.0372572
0.00973805 0.0317677 0.0374866
0.0092088 0.0317161 0.0379845
0.00900956 0.0315946 0.0382536
0.00815534 0.031609 0.038843
0.00772798 0.0316142 0.0390705
0.0122255 0.0266929 0.0548624
0.0520072 0.0461641 0.00426825
0.0120789 0.0265372 0.0551492
0.0116371 0.0265783 0.0552503
0.0111516 0.0265988 0.0554536
-0.00643138 0.0421783 0.0659054
0.0101669 0.026747 0.0558489
0.0102482 0.0328887 0.0572453
0.00903964 0.0264448 0.0572503
0.00877703 0.0265966 0.0574019
0.0055283 0.0261243 0.0607786
0.00518572 0.0261671 0.0610149
-0.00254542 0.0307061 0.0661328
0.00451913 0.0261112 0.0617077
0.00645451 0.0354846 0.0401521
0.00387164 0.0258291 0.0625434
-0.00518809 0.0257675 0.068005
0.00225802 0.0473692 -0.0120424
-0.00621784 0.0257983 0.068484
-0.00940793 0.026025 0.0696619
-0.0098938 0.026121 0.0697692
-0.0113401 0.0261984 0.0703156
-0.0192143 0.0391154 0.0694828
-0.0133987 0.0261362 0.0718601
0.00195173 0.0315977 0.0626126
-0.0169236 0.0463421 0.0722979
-0.0139583 0.0262061 0.0717983
-0.0159609 0.0264294 0.0717421
-0.0164285 0.026332 0.0723777
-0.0912604 0.0696627 0.0493791
-0.0179701 0.0260651 0.0742685
0.00295928 0.0325631 0.0612226
-0.0798521 0.0431306 0.0459872
-0.0800307 0.0430998 0.0462057
0.0455921 0.0435944 -0.0263226
0.0451283 0.0436566 -0.0262857
0.0446634 0.0437189 -0.0262483
0.038066 0.0464018 -0.0122779
0.0430294 0.0441511 -0.0271139
0.0413508 0.0447014 -0.0286082
0.0405399 0.0450426 -0.0294102
0.0401618 0.0451667 -0.0296538
0.0394217 0.0453838 -0.0300347
0.0386758 0.045601 -0.0304124
0.037071 0.0459577 -0.0308138
0.0361681 0.0461594 -0.031043
0.0358417 0.0461904 -0.03097
0.0341317 0.0464386 -0.0309066
0.00809937 0.0301985 0.0564075
0.0281381 0.0463145 -0.0269843
0.0276714 0.0461594 -0.0261375
0.00859153 0.0364181 0.0382255
0.0266094 0.0461594 -0.0255243
0.0257914 0.0462214 -0.0252829
-0.00393033 0.0463765 -0.00870048
0.00396326 0.046699 0.0592574
-0.00414121 0.0461283 -0.00765496
0.0116945 0.032198 0.0354178
0.0105793 0.0321156 0.0363081
0.0121874 0.0452422 0.0109384
0.0101667 0.0319362 0.0369119
0.0126711 0.0268332 0.0544608
0.00276613 0.0467263 -0.00159703
0.0116881 0.0268798 0.0548552
0.0107021 0.0269263 0.0552512
0.0101935 0.0270987 0.055285
-0.00195404 0.0464173 0.0033221
0.00822039 0.0267365 0.0579542
0.00802565 0.0266109 0.0582206
0.0076582 0.0266626 0.0584404
0.00747873 0.026492 0.0587288
0.0522066 0.0459685 0.00838702
0.0115535 0.0271463 0.0547019
-0.0279182 0.0482702 0.0765094
0.00701703 0.02643 0.0592263
0.00674386 0.0263989 0.0594995
0.0542026 0.0470691 0.025325
-0.00488704 0.0371939 0.0657527
0.0063731 0.0263369 0.0599445
0.0367377 0.0468438 -0.0171691
0.00426363 0.0262919 0.0618841
0.00373572 0.0261896 0.0625064
0.00356006 0.026103 0.0626848
0.00215166 0.0261617 0.0637674
0.00172493 0.0261617 0.0640137
-0.0234305 0.0411278 0.0701849
0.0014689 0.0261617 0.0641616
0.00745828 0.0362265 0.0391107
0.000703438 0.026193 0.064488
0.00019075 0.026193 0.064784
0.00047321 0.0314235 0.0636972
0.051134 0.0466562 0.0134327
-0.000236488 0.026193 0.0650307
-0.000815797 0.0261861 0.0653908
0.048567 0.0446903 -0.0209965
-0.00135817 0.0261669 0.065866
0.0531274 0.0454384 -0.00850286
-0.0031353 0.0259026 0.0670507
-0.00491278 0.0262021 0.0677883
0.00664467 0.0462534 0.00834579
-0.00536336 0.0260944 0.0679908
-0.0201248 0.0284122 0.0721254
-0.00587913 0.0260933 0.0682192
-0.00639651 0.0261182 0.0684256
0.00231986 0.0301974 0.0625156
-0.00609292 0.0351335 0.0671417
-0.00691366 0.0261566 0.0686548
0.00315101 0.0480702 -0.00765047
-0.00580061 0.057727 0.0387694
-0.0073573 0.0261618 0.0688917
-0.00925929 0.0261818 0.0695472
-0.0118065 0.0263369 0.0704405
-8.59425e-05 0.0455648 0.018698
-0.00598902 0.0321442 0.0676591
-0.0121528 0.0263369 0.0706404
-0.0437961 0.0485623 0.066393
-0.0127017 0.0261818 0.0715347
-0.0152741 0.026554 0.0716342
-0.015798 0.0267638 0.0715326
0.0365757 0.0468879 -0.0205396
-0.0167378 0.0267092 0.0719019
-0.0223194 0.0351125 0.0704479
-0.0168054 0.0265954 0.0723644
0.00320562 0.0476647 -0.0086635
-0.0169543 0.0265075 0.0727775
0.0459293 0.0436654 -0.0261708
0.0281266 0.0463563 -0.0245527
-0.0171738 0.0315349 0.0735393
0.0425408 0.0445406 -0.0274477
0.0418415 0.0447281 -0.0277368
0.0410771 0.0450094 -0.0283346
0.0407022 0.0451345 -0.0285801
0.0403463 0.0452282 -0.028721
0.0072622 0.0324635 0.0565444
0.0399684 0.0453533 -0.0289647
0.0396307 0.0454158 -0.0290007
0.0390801 0.0455721 -0.0292601
0.0385266 0.0457283 -0.029518
0.0510304 0.0460916 0.00431257
0.0378203 0.0458846 -0.0296875
0.0374546 0.0459784 -0.0298228
0.0366139 0.0461035 -0.0297993
0.036094 0.0461972 -0.0298456
0.00883811 0.0328697 0.0369284
0.0346183 0.0463535 -0.0295709
0.0337892 0.0464472 -0.0294386
0.0334616 0.0464785 -0.0293649
0.00397858 0.0270964 0.0617119
0.0143668 0.0462901 0.0234596
0.0315647 0.0465723 -0.0286162
-0.0182695 0.0367151 0.0689758
0.0292199 0.0468223 -0.0281862
0.0283905 0.0463847 -0.0260907
0.0505423 0.0459828 0.0244552
0.0276545 0.0461972 -0.024973
0.0263604 0.046291 -0.0245723
0.00716596 0.0356718 0.0392795
0.000128536 0.0469991 0.0394743
0.000198198 0.0468223 -0.0114305
-0.000107293 0.0468223 -0.0112541
0.00621842 0.0336282 0.0584007
-0.000447712 0.0467442 -0.0107689
-0.000834116 0.0466973 -0.0103726
-0.00113879 0.0466973 -0.0101967
0.00998964 0.0463873 0.0293354
-0.00147595 0.0466191 -0.00971336
-0.00216376 0.0465723 -0.00914304
-0.00308372 0.0463847 -0.00791909
-0.00384289 0.0459159 -0.00574874
-0.00394058 0.0457909 -0.00523045
0.0114866 0.0323193 0.0356303
0.0100871 0.0323349 0.0363805
0.00940238 0.0321943 0.0372955
0.00925137 0.032163 0.0374981
0.00867144 0.0321482 0.0383333
0.0121849 0.0272016 0.0545106
0.005182 0.0277016 0.0604012
0.0119197 0.0270994 0.0546637
0.00969786 0.0272245 0.0554846
0.0561151 0.0457846 0.00639986
0.00941226 0.0271932 0.055765
0.0471676 0.0453886 -0.0204195
0.00863109 0.0272487 0.0563892
0.0315073 0.0466077 -0.0261582
-0.0029918 0.0271223 0.0666504
0.00864938 0.0270213 0.0568405
0.00845875 0.0269119 0.0573547
0.00652091 0.0265837 0.059686
0.0520798 0.0458425 -0.0165583
-0.057843 0.051917 0.0608776
0.00602682 0.0265368 0.0601444
0.00568061 0.0266368 0.0603443
0.00460427 0.0266214 0.0612977
0.00460975 0.0381869 0.0422564
-0.00191919 0.0262206 0.0663157
-0.00228388 0.0261976 0.0665592
-0.00245417 0.0261976 0.0666575
0.0611565 0.0544084 0.00268095
0.0557061 0.0456466 0.00496174
-0.00282383 0.026208 0.0668324
0.0556147 0.0509964 0.00974875
-0.00325052 0.0262513 0.0670403
-0.0079091 0.0263024 0.0690563
-0.0183796 0.0486916 0.063362
-0.00992569 0.0264587 0.0696433
-0.0135679 0.0335636 0.0701873
-0.0103425 0.0266772 0.0696915
-0.0130329 0.0264587 0.0714373
-0.0133782 0.0264587 0.0716366
0.00999517 0.046535 -0.000690025
0.0045614 0.046871 0.058835
-0.0164291 0.0272182 0.0714927
-0.0170084 0.0270331 0.0717984
-0.0173815 0.0271147 0.0722736
-0.0178294 0.0266306 0.0735714
-0.0904686 0.0710732 0.0473246
-0.0196065 0.0405746 0.0697477
-0.0184163 0.0267556 0.0734483
0.0446634 0.0442148 -0.0262483
0.0115666 0.0465822 0.000365674
0.0431804 0.044704 -0.0265757
0.0412177 0.0451281 -0.0276075
0.00103082 0.0351482 0.0617876
0.0408646 0.0452226 -0.0277501
0.00950251 0.0312003 0.0546736
0.0401547 0.0454115 -0.0280331
0.0396294 0.0455375 -0.0281917
0.0387633 0.0457264 -0.0283844
0.0383803 0.0458524 -0.0286252
0.0380395 0.0459154 -0.0286594
0.0366455 0.0461988 -0.0288938
0.0495341 0.0461436 -0.0136451
0.0361276 0.0462933 -0.0289411
0.0356313 0.0463563 -0.0288856
0.0316587 0.0466239 -0.0275735
