ply
format ascii 1.0
comment Created by Open3D
element vertex 1673
property float x
property float y
property float z
end_header
-0.0194958 0.0201031 0.0336
-0.0556208 0.0256208 0.0413
-0.0259763 0.0213663 0.04
-0.0210134 0.0196397 0.0354
-0.021347 0.0197299 0.035575
-0.0735203 0.0331034 0.0221
-0.0032416 0.048958 0.00650001
-0.0143263 0.0259445 0.0237
-0.0218738 0.0197194 0.03576
-0.0221386 0.0195459 0.0359
-0.0443545 0.0512886 0.0364
-0.022415 0.0196651 0.0361333
-0.0124236 0.0468605 -0.00139999
-0.0983954 0.0574656 0.0079
-0.0233437 0.0191488 0.03865
-0.0235243 0.0191016 0.0389
-0.0260129 0.0544288 0.0142
-0.0254468 0.0189075 0.0393
-0.0279205 0.0486966 0.0156
-0.0361919 0.0293873 0.0423
-0.0273891 0.0187184 0.0411333
-0.0278879 0.0187268 0.0417
-0.0321449 0.0181377 0.0434
-0.0484226 0.0241157 0.0436
-0.0324103 0.018209 0.043625
-0.0326404 0.0181475 0.04395
-0.0328265 0.0322171 0.039575
-0.0456397 0.018213 0.0442
-0.0464393 0.0181695 0.0436333
-0.0748331 0.0306307 0.022
-0.0469511 0.0182373 0.043475
-0.0394131 0.0203408 0.0448
-0.047593 0.0180438 0.0439
-0.00913549 0.0282235 0.0161
-0.0754315 0.0487535 0.0185
-0.00490011 0.0461318 -0.0054
-0.0481212 0.0179874 0.0442
-0.0193515 0.0402654 0.0102
-0.0493691 0.0181067 0.0439667
-0.0140059 0.0344891 0.0156
-0.0378867 0.0338451 0.0404667
-0.0499692 0.0180438 0.0439
-0.0504714 0.0181507 0.0437333
-0.0519218 0.0182467 0.043425
-0.0278603 0.0257138 0.039575
-0.0234685 0.0297884 0.0358
-0.0381882 0.0299697 0.0419
-0.0528652 0.0182513 0.04328
-0.0579097 0.0184099 0.04195
-0.0226289 0.0205264 0.0359
-0.0648761 0.0477075 0.0478
-0.0597935 0.0184568 0.0417
-0.0605959 0.0184193 0.0419
-0.0819135 0.0246327 0.009625
-0.053466 0.0207227 0.042475
-0.0825701 0.0244464 0.0098
-0.00909355 0.0242207 0.0126
-0.0453643 0.0511424 0.0422
-0.0110132 0.0243036 0.01295
-0.0119155 0.0241636 0.0129
-0.0196931 0.046396 -0.001
-0.0292086 0.0207505 0.0418
-0.0140887 0.0221674 0.0234
-0.0109078 0.0466928 0.00300001
-0.0669485 0.047027 0.0434
-0.0316435 0.0376781 0.0392
-0.0143263 0.0222475 0.0237
-0.076448 0.024305 0.021
-0.0389251 0.0212856 0.04418
-0.0166792 0.0207458 0.03155
-0.0169755 0.0206405 0.0321
-0.0191739 0.0202853 0.0333
-0.0200372 0.0202675 0.03405
-0.0747697 0.0332423 0.0221
-0.0209288 0.0201269 0.035
-0.0341756 0.0276347 0.0428
-0.022816 0.0198331 0.0365333
-0.0754527 0.03163 0.0219
-0.0433621 0.0596266 0.0316667
-0.0233046 0.0193347 0.0383
-0.0239845 0.0192555 0.0391333
-0.0253408 0.0192728 0.03925
-0.0261322 0.0191256 0.0394
-0.0267495 0.0191771 0.03975
-0.0283631 0.0187611 0.041925
-0.0294501 0.018718 0.04215
-0.0302869 0.0187276 0.0423
-0.0534009 0.0357516 0.0395
-0.0305519 0.0186255 0.0424333
-0.0316253 0.0184602 0.0429
-0.0379055 0.0296982 0.0420333
-0.0161245 0.030563 0.0184
-0.0323704 0.0522908 0.0454
-0.0332842 0.0183507 0.0442667
-0.0335263 0.0182437 0.0444333
-0.0227533 0.0452309 0.0082
-0.0344232 0.0182398 0.04465
-0.0353405 0.0182484 0.0448
-0.0506003 0.0317677 0.0395
-0.0358627 0.0181728 0.045
-0.0369454 0.018193 0.0452833
-0.0404857 0.026688 0.04165
-0.0379395 0.0182077 0.0454
-0.0389197 0.0181631 0.0454
-0.0527384 0.0338778 0.0406
-0.0579369 0.0466967 0.0407167
-0.0505053 0.0372136 0.0402333
-0.0394291 0.0182269 0.0453
-0.0455008 0.047742 0.039
-0.0288908 0.0276965 0.0401
-0.0684041 0.0471605 0.0386429
-0.0444523 0.0181632 0.04505
0.0430789 0.0563862 0.0385667
-0.0494436 0.0524746 0.0404
-0.0591992 0.0342227 0.0371
-0.0452719 0.0182684 0.0445
-0.0468726 0.0227245 0.044675
-0.0494548 0.0182891 0.0438
-0.0199474 0.0393181 0.0103
-0.0544854 0.0185362 0.0425
-0.0524942 0.03728 0.03995
-0.0555703 0.0186693 0.0418
-0.055972 0.0187263 0.0415
-0.0568405 0.0187834 0.0412
-0.0575353 0.0189355 0.0404
-0.0199167 0.0300728 0.0306
-0.0577698 0.0189355 0.0404
-0.0143756 0.032282 0.0162
-0.0576549 0.0188214 0.041
-0.058022 0.0187179 0.04215
-0.0584545 0.0187596 0.0421333
-0.0589528 0.0187197 0.04202
-0.0599246 0.018735 0.04194
-0.0603341 0.0187562 0.04195
-0.0829343 0.0247245 0.00995
-0.0834825 0.0247055 0.01005
-0.0158648 0.0448447 -0.0024
-0.084456 0.024677 0.0102
-0.0288915 0.044653 0.0402333
-0.0182711 0.0260845 0.0327
-0.0944991 0.0244678 0.0113
-0.0949537 0.0244678 0.0113
-0.0144104 0.0475564 0.0159
-0.00893653 0.0245014 0.0127
-0.00967834 0.0244822 0.0128
-0.00996219 0.0245931 0.013
-0.0563794 0.0216912 0.04256
-0.0358736 0.0201818 0.044225
-0.0104108 0.0245931 0.013
-0.0152503 0.0217491 0.027
-0.0559098 0.026112 0.0412
-0.0493491 0.0487352 0.0504333
-0.0150395 0.0284179 0.0202
-0.0514255 0.0232608 0.042425
-0.0162654 0.0209985 0.0309
-0.021865 0.0207382 0.03545
-0.0567242 0.0486442 0.05105
-0.0124255 0.0469047 0.000450008
-0.0178837 0.0207687 0.03275
-0.0183588 0.0207347 0.032925
-0.0214855 0.0201131 0.0355
-0.026789 0.0517058 0.0433
-0.0219031 0.0201884 0.03562
-0.0225255 0.0200985 0.036
-0.0232692 0.0197474 0.0374
-0.0238901 0.0196482 0.03866
-0.0263953 0.0193817 0.0393
-0.0273027 0.0192876 0.0406
-0.0598834 0.0464697 0.0402
-0.0319517 0.0187935 0.04295
-0.0325127 0.018662 0.0434333
-0.0560254 0.0456381 0.04825
-0.0328122 0.0186925 0.0436667
-0.0330116 0.018559 0.0439667
-0.0469511 0.0186917 0.043475
-0.0444298 0.0289782 0.0429
-0.0483724 0.0186047 0.043925
-0.049937 0.0186822 0.043525
-0.0519019 0.0187355 0.04325
-0.0533198 0.0187935 0.04295
-0.0545101 0.0188139 0.04225
-0.0551639 0.0189198 0.0417
-0.0488747 0.0285796 0.0427
-0.0579438 0.0192278 0.0401
-0.0815126 0.0252177 0.009775
-0.0819569 0.0250596 0.0098
-0.0822635 0.0250596 0.0098
-0.0101975 0.0458377 0.01
-0.0546453 0.0205193 0.0418
-0.0823834 0.0252381 0.00993333
-0.0828385 0.0251548 0.0101
-0.0715104 0.0342506 0.0221333
-0.0227101 0.0446805 0.00845001
-0.0834022 0.0251403 0.010175
-0.0839034 0.0250716 0.0102667
-0.0843909 0.0249634 0.0103
-0.0584543 0.0352193 0.0385333
-0.0518133 0.0476701 0.0399
-0.042914 0.047788 0.03865
-0.0938983 0.0247324 0.0115
-0.0942742 0.0247516 0.0114
-0.00891547 0.0247428 0.013
-0.0194409 0.047514 0.0096
-0.0114485 0.0247233 0.0131
-0.0144561 0.046634 0.0116
-0.0129574 0.023168 0.0220333
-0.0133901 0.0229309 0.0223
-0.049544 0.0407258 0.039
-0.0145625 0.0227362 0.024
-0.0943718 0.043169 0.0129
-0.0604391 0.0479392 0.0486
-0.0147653 0.0226287 0.02455
-0.0697472 0.0476789 0.0391333
-0.0154378 0.0222267 0.0266
-0.0155026 0.0219957 0.0271
-0.0156847 0.0218788 0.0277
-0.0518718 0.0216469 0.04245
-0.0309037 0.0492961 0.044075
-0.0158497 0.0217425 0.0284
-0.0199687 0.0208252 0.03375
-0.0178749 0.0341661 0.015175
-0.020392 0.0207469 0.03415
-0.0309886 0.0314441 0.0394
-0.0210937 0.0204566 0.035
-0.0153574 0.0478081 0.0129
-0.0228081 0.0202228 0.0362
-0.0230081 0.0201839 0.0364
-0.0334084 0.0212891 0.0430333
-0.0601261 0.0494611 0.0384
-0.0102947 0.0559902 0.00470001
-0.0232807 0.0203006 0.0366333
-0.0538906 0.0307063 0.0391
-0.0253848 0.0197815 0.039075
-0.0263687 0.0197769 0.03922
-0.0189991 0.0221125 0.033575
-0.0400132 0.0448501 0.0369
-0.026606 0.0195994 0.0394
-0.0283559 0.019218 0.04195
-0.0653781 0.0476879 0.0406
-0.0289085 0.0192017 0.0420333
-0.0298957 0.019169 0.0422
-0.0307519 0.0266667 0.0413
-0.0302869 0.0191878 0.0423
-0.0264477 0.0286867 0.0391
-0.0305624 0.0190915 0.0424
-0.00175732 0.0465623 -0.000499994
-0.0691833 0.0471216 0.0388
-0.0318213 0.0193251 0.0427667
-0.0339764 0.0186938 0.0444333
0.0474096 0.054959 0.0333
-0.0353964 0.0186692 0.04475
-0.0390946 0.0184499 0.0453
-0.0399173 0.0186926 0.0452
-0.0403708 0.0186959 0.0451833
-0.0408765 0.0186692 0.0451571
-0.00790081 0.0317428 0.0186333
-0.0424143 0.0186898 0.0452143
-0.0440316 0.018686 0.0452333
-0.0456397 0.0186642 0.0442
-0.0473519 0.0187616 0.0437
-0.0478856 0.0187486 0.0437667
-0.0506227 0.0188396 0.0433
-0.0509643 0.0188396 0.0433
-0.0538126 0.0191529 0.042575
-0.0544784 0.0191887 0.0421
-0.0549325 0.0192672 0.0417
-0.0418766 0.0372008 0.0411
-0.0565403 0.0193851 0.0405
-0.0574132 0.0194825 0.04
-0.0309112 0.0472362 0.04454
-0.0424792 0.0268554 0.04395
-0.0581758 0.0195409 0.0397
-0.00899971 0.0461087 0.0118
-0.0580596 0.0191902 0.0415
-0.0338947 0.0212361 0.043275
-0.0384542 0.0342449 0.0411167
-0.0580664 0.0191936 0.042075
-0.0584531 0.019169 0.0422
-0.0218439 0.0468073 0.00900001
-0.0589136 0.019169 0.0422
-0.01591 0.0371255 0.0156
-0.0818939 0.0253467 0.0099
-0.0840207 0.0252493 0.0104
-0.0604198 0.045147 0.0329333
-0.0843259 0.0252493 0.0104
-0.00949862 0.0250024 0.0132
-0.0099465 0.0250024 0.0132
-0.0539909 0.0465314 0.0364
-0.0103944 0.0251516 0.0132
-0.0109418 0.0251019 0.0132
-0.0141309 0.0231979 0.02305
-0.0114395 0.0250024 0.0132
-0.013644 0.0231686 0.0225
-0.014357 0.0231186 0.02345
-0.0130921 0.0279501 0.0173
-0.0584773 0.0480957 0.0539667
-0.0149916 0.0226954 0.0249
-0.0151897 0.0227219 0.02545
-0.0433973 0.022663 0.0454
-0.0153582 0.022439 0.0262
-0.0510383 0.0206696 0.042725
-0.0514964 0.0202115 0.042725
-0.0157545 0.0222419 0.0272
-0.0162726 0.0218672 0.0291
-0.0173948 0.0212936 0.03265
-0.0235665 0.0212355 0.036625
-0.0177657 0.0212837 0.0327
-0.0179848 0.021244 0.0329
-0.0183545 0.0212341 0.03295
-0.00943486 0.0282462 0.016
-0.0255054 0.0223083 0.04
-0.0199301 0.0212038 0.0337333
-0.0223818 0.0207171 0.03568
-0.0229523 0.0206093 0.0361
-0.0235567 0.0202701 0.0372
-0.0564034 0.0446567 0.0329
-0.0237061 0.0203119 0.0376
-0.0240833 0.0200039 0.03855
-0.0273807 0.0196776 0.0406
-0.0368082 0.0221793 0.0433
-0.0255635 0.0370346 0.0224
-0.0275676 0.0196275 0.04105
-0.0139495 0.0368303 0.0161
-0.00998954 0.0464886 -0.00229999
-0.0586815 0.034764 0.038
-0.0693866 0.0472025 0.0389667
-0.032066 0.0192506 0.04295
-0.0329544 0.0191069 0.04356
0.0450166 0.0472058 0.0372333
-0.0337785 0.0188799 0.04425
-0.0357142 0.0187715 0.0448
-0.057455 0.0276929 0.04062
-0.0374419 0.0187944 0.04525
-0.0381623 0.0186532 0.0454
0.00907954 0.0467561 0.00560001
-0.051867 0.0277397 0.042025
0.0485588 0.0547333 0.0339
-0.0384965 0.0186532 0.0454
-0.00992553 0.0442697 -0.00379999
-0.0394604 0.0187993 0.045225
-0.042897 0.0188451 0.045275
-0.0253982 0.0471547 0.0426667
-0.0430631 0.0186532 0.0454
-0.0433973 0.0187646 0.0454
-0.0437314 0.0187646 0.0454
-0.0304111 0.0457716 0.0415
-0.0465099 0.0189687 0.0438
0.00770895 0.0470667 0.00740001
-0.032484 0.0227311 0.042725
-0.0479824 0.0189687 0.0438
-0.0484522 0.0192018 0.0437667
-0.0388974 0.0207025 0.04458
-0.0115782 0.0454655 -0.0033
-0.0529538 0.0471389 0.039525
-0.0493192 0.0191613 0.0434
-0.00220855 0.0460973 -0.0086
-0.049925 0.0191703 0.04324
-0.0598627 0.0422967 0.03355
-0.0513875 0.0192059 0.04306
-0.052977 0.0191363 0.04295
-0.0533442 0.0193251 0.0427667
-0.0555006 0.0196176 0.0411
-0.0569138 0.0197081 0.04005
-0.0582364 0.0194813 0.0412
-0.081497 0.0256728 0.0098
-0.0310215 0.0481725 0.02425
-0.0828957 0.0257367 0.01025
-0.083354 0.0257368 0.01025
-0.0344312 0.0246457 0.0424
-0.0124227 0.0337281 0.016775
-0.0838681 0.0257071 0.0104
-0.0478956 0.0217097 0.0442
-0.00615325 0.0469553 -0.0027
-0.0114214 0.0252611 0.0134
-0.0150177 0.0231422 0.0247
-0.0509621 0.0267646 0.0423
-0.0383816 0.0315689 0.0405
-0.0200655 0.0211706 0.0339
-0.0234394 0.0207436 0.03665
-0.0243995 0.0203271 0.038725
-0.0245956 0.0201729 0.0389
-0.0249923 0.0202523 0.0389
-0.0234435 0.050158 0.015
-0.0254225 0.020287 0.038925
-0.0264345 0.0202418 0.03915
-0.0279297 0.0197309 0.04158
-0.0284859 0.0196898 0.0419
-0.0468516 0.0382319 0.039925
-0.0280273 0.0286014 0.0394
-0.0289184 0.0196698 0.042
-0.0294577 0.0196446 0.042125
-0.030639 0.0197044 0.0424
-0.0333968 0.0193235 0.043725
-0.0335276 0.0191553 0.044
-0.0344385 0.0191505 0.0444
-0.034921 0.0191647 0.0445167
-0.0354243 0.0191328 0.044675
0.0480966 0.0542395 0.033725
-0.0364413 0.0191896 0.04495
-0.0449025 0.0192505 0.044925
-0.07395 0.0306914 0.0223
-0.0451297 0.0191078 0.0448
-0.0454015 0.0192399 0.0447
-0.0464777 0.0191354 0.0441
-0.0105457 0.0469117 0.00140001
-0.0369414 0.020231 0.044525
-0.0546453 0.0247972 0.0418
-0.0478702 0.0192633 0.044025
-0.0560153 0.0198337 0.0406
-0.0564757 0.0199135 0.0402
-0.0569948 0.0201316 0.0397
-0.0359754 0.023684 0.042575
-0.057912 0.0202714 0.0392
-0.0583616 0.0202369 0.039175
-0.0499959 0.0281219 0.0423
-0.0219826 0.0381391 0.02155
-0.0581076 0.0196296 0.0422
-0.0725486 0.0235251 0.0221
-0.024524 0.0384667 0.0214
-0.0729961 0.0235351 0.02205
-0.0193837 0.026709 0.0330667
-0.0477945 0.0247067 0.04395
-0.0737216 0.0235451 0.022
-0.00993081 0.0255592 0.0134
-0.0103883 0.0257337 0.013275
-0.0114214 0.0255592 0.0134
-0.0141491 0.0237791 0.0229
0.0451915 0.0544084 0.0329
-0.0409185 0.0346699 0.042
-0.0143818 0.023708 0.02325
-0.0526364 0.0419337 0.0357
-0.059572 0.0234128 0.0413
-0.0148101 0.0233788 0.0242
-0.0152228 0.0231769 0.0252
-0.0164633 0.022652 0.0278
-0.0170049 0.0219857 0.0311
-0.0173988 0.0218042 0.032625
-0.0233817 0.0468651 0.0426333
-0.0121309 0.0469054 0.0153
-0.0158789 0.0243391 0.0256667
-0.0177575 0.0217789 0.03275
0.0465554 0.0557437 0.0341
-0.0179848 0.0217484 0.0329
-0.0162902 0.047187 0.0025
-0.0494423 0.0471642 0.0407167
-0.0369403 0.0246331 0.04245
-0.0198436 0.0215757 0.03375
-0.0226289 0.0210167 0.0359
-0.0233045 0.0212074 0.0361667
-0.0581707 0.0205674 0.0393
-0.048809 0.042774 0.0378
-0.0244215 0.0207432 0.0386333
-0.0276094 0.0200072 0.0409
-0.0277304 0.0199265 0.0413
-0.0259712 0.0267628 0.0418
-0.0324539 0.0196707 0.04302
-0.0328866 0.0197088 0.043225
-0.0729826 0.0261602 0.0206333
-0.0637441 0.046511 0.0325
-0.0334575 0.0197372 0.04355
-0.0343243 0.0193208 0.0443
-0.0233963 0.0465223 0.01065
-0.0369554 0.0192779 0.0450667
-0.0374814 0.0192609 0.04515
-0.0794355 0.0496763 0.018575
-0.038868 0.0192284 0.0452
-0.0282245 0.0491502 0.0428
-0.0394287 0.0192853 0.04514
-0.0399593 0.019271 0.0451
-0.018059 0.0519849 0.0107
-0.0408855 0.0192864 0.045025
-0.0419029 0.0192914 0.045
-0.0424399 0.0192812 0.04505
-0.0429044 0.0192366 0.04516
-0.0434311 0.0192772 0.04518
-0.0519839 0.0267397 0.0421667
-0.0439356 0.0192508 0.0452
-0.0444523 0.0192812 0.04505
0.0425247 0.047141 0.03814
-0.0458341 0.0192804 0.0445
-0.0489104 0.0197028 0.0435333
0.0140684 0.0463977 0.00480001
-0.0504631 0.0197077 0.04295
0.0326525 0.0468354 0.0501667
-0.0509464 0.0196034 0.0429
-0.0514037 0.0196034 0.0429
-0.0519145 0.0197381 0.0428
-0.0245863 0.0236067 0.03795
-0.0523857 0.0197432 0.042775
-0.0538518 0.0197044 0.0424
-0.055156 0.0199265 0.0413
-0.0384657 0.0217399 0.0439
-0.056128 0.0202254 0.0404
-0.0581732 0.0198457 0.0417
-0.0725162 0.0238835 0.0217
-0.0405324 0.0281359 0.04265
-0.0728724 0.0238633 0.0218
-0.0744662 0.0238835 0.0217
-0.0114304 0.0258777 0.0133
-0.012504 0.0250403 0.0174
-0.0126546 0.0242233 0.0214
-0.0130349 0.0241519 0.02175
-0.0136847 0.024209 0.02215
-0.0213567 0.0464723 0.0082
-0.0139207 0.0241371 0.0225
-0.000869667 0.0463136 0.00865
-0.0146127 0.023774 0.0236
-0.0484226 0.0236617 0.0436
-0.0148356 0.0236923 0.024
-0.0536803 0.0416809 0.0351
-0.0304028 0.0236962 0.04205
-0.0153306 0.0236548 0.0250667
-0.0154527 0.0233859 0.0255
-0.0440146 0.0261941 0.0443
-0.0333492 0.0317915 0.039425
-0.0301594 0.0346421 0.0394
-0.0163868 0.0231817 0.0265
-0.0453544 0.049463 0.0369
-0.0419222 0.0368281 0.0412667
-0.0166977 0.0228753 0.028
-0.0199696 0.0218231 0.0339667
-0.0203409 0.0216921 0.0342
-0.0237988 0.0209963 0.0372
-0.0249376 0.0207489 0.0388
-0.0454397 0.0317543 0.04245
-0.0258729 0.0207424 0.039025
-0.0519745 0.0462856 0.0491
-0.0277726 0.0203059 0.04115
0.0140738 0.0456582 0.00320001
-0.0280435 0.0202495 0.041425
-0.039875 0.0440714 0.0347
-0.0289822 0.0201205 0.04194
-0.0387227 0.0297325 0.0423
-0.050271 0.0494549 0.0431
-0.0294651 0.0201108 0.0421
-0.0343959 0.0197 0.0441
-0.0354442 0.0196527 0.04444
-0.0359015 0.0195973 0.0446
-0.0439441 0.0322963 0.0422
-0.0403827 0.0347053 0.0419
-0.0363867 0.019444 0.0448
-0.0256287 0.0382397 0.0221
-0.0469066 0.0197626 0.04456
-0.0473363 0.0196281 0.0442667
-0.0478452 0.019705 0.044075
-0.0485068 0.0197375 0.0437333
-0.0509988 0.0198525 0.0428
-0.0514566 0.0198525 0.0428
-0.0551001 0.0202546 0.0414
-0.0176493 0.0470336 0.002
-0.0208899 0.0472717 0.041225
-0.056938 0.0204653 0.0398
-0.0579336 0.0205674 0.0393
-0.0582918 0.0205265 0.0395
-0.0277371 0.0497465 0.0177
-0.05809 0.020149 0.0421
-0.0726388 0.0242029 0.0215
-0.0192183 0.0465733 0.00240001
-0.0128449 0.0329691 0.0169
-0.0734912 0.0241621 0.0217
-0.0186539 0.0240316 0.0334
-0.0519263 0.0311592 0.0393
-0.0739091 0.0241621 0.0217
-0.0171127 0.036946 0.0132
-0.0743897 0.0241825 0.0216
-0.0599916 0.0470393 0.0461
-0.0749343 0.0242233 0.0214
-0.0754486 0.024254 0.02125
-0.0768684 0.024305 0.021
-0.0374256 0.0382274 0.04055
-0.111919 0.0262939 0.012
-0.0128136 0.0308646 0.0172
-0.0628844 0.0476611 0.04814
-0.0376749 0.0314291 0.0402
-0.0108423 0.0261967 0.0132
-0.0114304 0.0261761 0.0133
-0.0261376 0.0505859 0.0429
-0.0118591 0.0262837 0.0135
-0.0131798 0.0244407 0.0217
-0.0141491 0.0241927 0.0229
-0.0158499 0.0525916 0.01255
-0.0143632 0.0240894 0.0234
-0.0332976 0.0446078 0.03065
-0.0170283 0.0226581 0.03095
-0.0180352 0.0237062 0.0326
-0.0974532 0.041536 0.011
-0.0177492 0.0221474 0.0328
-0.0178784 0.0222671 0.0330333
-0.0165091 0.0380349 0.0155
-0.0182697 0.0221486 0.0332
-0.051012 0.0202011 0.042775
-0.0210046 0.0218507 0.0350333
-0.0444841 0.0328154 0.042025
-0.021844 0.0217022 0.03555
-0.0222933 0.0216607 0.03575
-0.0266578 0.0528865 0.0435
-0.0252038 0.0284785 0.0364
-0.0226289 0.0216295 0.0359
-0.0229857 0.0216697 0.03606
-0.0239473 0.0211557 0.0376
0.00238624 0.0464723 0.0082
-0.0240821 0.0211828 0.03805
-0.0250717 0.0208872 0.0389
-0.0253348 0.0209078 0.0388
-0.0374614 0.0221014 0.043475
-0.026606 0.0207839 0.0394
-0.0249187 0.0372442 0.022175
-0.0270571 0.020803 0.0400667
-0.0275481 0.0206322 0.0407
-0.0287461 0.020288 0.0418
-0.0303252 0.0202997 0.0423
-0.030952 0.0202582 0.0425
-0.0313628 0.020227 0.04265
-0.031903 0.0202063 0.04275
-0.0324172 0.0201699 0.042925
-0.0283687 0.0281854 0.0397
-0.0468395 0.0488091 0.0407
-0.0333822 0.020268 0.043275
-0.0369227 0.0198246 0.0447667
-0.0156798 0.0366865 0.0151
-0.0370203 0.0196476 0.0449
-0.0379209 0.0197612 0.045
-0.0393809 0.0197081 0.04504
-0.0550272 0.0336997 0.0392667
-0.0399595 0.0197737 0.04494
-0.00928649 0.0316821 0.01795
-0.0938813 0.0428377 0.01255
-0.0404808 0.0197544 0.044925
-0.0413873 0.0196476 0.0449
-0.0199935 0.0537969 0.01
-0.0424398 0.0197372 0.0449
-0.0194857 0.0414679 0.00930001
-0.0434384 0.0197249 0.0450667
-0.0364378 0.022626 0.043175
-0.0439819 0.0197179 0.0451
-0.0434099 0.0287052 0.04305
-0.045365 0.0197899 0.0449333
-0.045578 0.0196682 0.0448
-0.0449687 0.0317461 0.042475
-0.0532036 0.0269666 0.0419
-0.0482719 0.0198542 0.0439
-0.0324038 0.0501987 0.0227
-0.0323179 0.0438485 0.0322
-0.0500061 0.0201647 0.04295
-0.0529658 0.0202479 0.04255
-0.0399524 0.0296209 0.0426667
-0.0534797 0.0202686 0.04245
-0.053907 0.0202997 0.0423
-0.0564231 0.0206737 0.0405
-0.0569647 0.0207037 0.0401667
-0.0580625 0.0204326 0.0411
-0.0373992 0.0241757 0.04275
-0.0733518 0.0246268 0.021475
-0.0738945 0.0246216 0.0215
-0.0538888 0.0271171 0.0416333
-0.0399325 0.0366607 0.0413
-0.0744997 0.0246371 0.021425
-0.0369297 0.0301683 0.04125
-0.0754337 0.0246372 0.0212
-0.076432 0.0247202 0.021025
-0.076933 0.0247462 0.0209
-0.0753888 0.0347988 0.022
-0.00993865 0.0264744 0.0133
-0.0134356 0.0246774 0.0219
-0.0155067 0.0241441 0.0251
-0.0157498 0.024102 0.0253
-0.0259161 0.0526546 0.0433
-0.0159919 0.0239252 0.0255
-0.0166101 0.0236536 0.0268
-0.0198489 0.0221973 0.0341667
-0.0203719 0.0221145 0.03464
-0.0349424 0.049709 0.04415
-0.0235392 0.021694 0.0365667
-0.0444439 0.0206963 0.04502
-0.0219844 0.0301658 0.03605
-0.0153734 0.0490001 0.0152
-0.0249841 0.0211975 0.0389333
-0.0253721 0.0211969 0.039125
-0.0138294 0.0476331 0.00120001
-0.0258152 0.0210521 0.03925
-0.0259491 0.0212046 0.03965
-0.0523445 0.0211929 0.042425
-0.0263691 0.0210367 0.0397
-0.02791 0.0207872 0.041075
-0.0279101 0.0452469 0.041075
-0.0288838 0.0206508 0.041725
-0.0289536 0.0506833 0.0438
-0.0294567 0.0206313 0.042
-0.0393514 0.0341041 0.0413
-0.0335097 0.0201849 0.0434
-0.0338942 0.0202567 0.0436
-0.0318802 0.0272527 0.0421167
-0.0343526 0.0202524 0.0438
-0.0349072 0.0201827 0.04406
-0.027507 0.0277242 0.04
-0.0363769 0.0201191 0.0444333
-0.0223917 0.038123 0.0216
-0.0372834 0.0198924 0.0448
-0.0473454 0.0202011 0.0444
-0.0569061 0.0479207 0.0544
-0.0482719 0.0201937 0.0439
-0.0578743 0.0351794 0.03874
-0.0543766 0.0207119 0.0422
-0.0550481 0.0206558 0.0417
-0.0557899 0.0206864 0.041
-0.0568316 0.0208118 0.0404
-0.0573583 0.0208327 0.0403
-0.111618 0.0267461 0.012
-0.0117288 0.0267728 0.0133
-0.014137 0.0247231 0.023
-0.043415 0.0237382 0.04502
-0.0148165 0.0246164 0.02415
0.00164943 0.0456933 0.00500001
-0.0150567 0.0244273 0.0244
-0.0170986 0.0231383 0.0305
-0.0174108 0.0227051 0.03255
-0.0190661 0.0224198 0.0339
-0.0972597 0.0651094 0.0069
-0.0199709 0.0223142 0.0344
-0.0208823 0.0222203 0.0352333
-0.0271389 0.0540222 0.0178
-0.0213624 0.0222047 0.0355
-0.0225064 0.0221198 0.0359
-0.0308992 0.0446469 0.0400714
-0.0229279 0.0222485 0.0361
-0.0242626 0.0216098 0.0383
-0.0248582 0.0213844 0.0388
0.00462105 0.0464778 0.0064
-0.0264208 0.0212273 0.0401
-0.0269579 0.0211956 0.0404333
-0.0299109 0.0207918 0.04215
-0.0268372 0.0457003 0.011675
-0.0303252 0.0207598 0.0423
-0.109016 0.0287574 0.0131
-0.0429786 0.0352122 0.041775
-0.0309678 0.020728 0.04245
-0.0213266 0.027695 0.035675
-0.0474258 0.0286706 0.04355
-0.0590659 0.0436694 0.03295
-0.0293371 0.0478409 0.0217
-0.0324208 0.0206918 0.0428
-0.0594309 0.046711 0.0332
-0.0325399 0.0205181 0.0429
-0.00942883 0.0622562 0.001025
-0.032963 0.0206111 0.043
-0.0374065 0.0202938 0.0446
-0.0578873 0.034696 0.03855
-0.0554575 0.0342108 0.039275
-0.0533757 0.0306834 0.039175
-0.0378737 0.0202447 0.044725
-0.0389239 0.0200954 0.0449
-0.0399316 0.0200954 0.0449
-0.0404668 0.0202511 0.0448
-0.0201239 0.0228273 0.0349
-0.0410039 0.0202393 0.04475
-0.0414525 0.0202393 0.04475
-0.0419011 0.0202393 0.04475
-0.064208 0.0387719 0.0293
-0.0424395 0.0202287 0.0448
-0.0429549 0.0200954 0.0449
-0.0449231 0.0201862 0.045
-0.0463993 0.0202446 0.044725
-0.0505411 0.0206536 0.0428
-0.053907 0.0206448 0.0423
-0.0575967 0.0208984 0.0411
-0.0219078 0.0385316 0.0212
-0.0577689 0.0207928 0.0416
-0.0720658 0.0252302 0.0206
-0.0378598 0.0345865 0.04125
-0.0722864 0.0252091 0.0207
-0.0204161 0.0252632 0.034025
-0.0218362 0.0262756 0.0357833
-0.0349083 0.0457552 0.0288
-0.0724456 0.0251668 0.0209
-0.0729136 0.0252663 0.02096
-0.00199602 0.0495676 0.00570001
-0.0734503 0.0252757 0.02118
-0.0739934 0.0251826 0.0212667
-0.0748893 0.0252327 0.02125
-0.0753721 0.0252541 0.02115
-0.0359251 0.0240712 0.0424
-0.0758717 0.0252805 0.021025
-0.0769007 0.0252965 0.02095
-0.0104414 0.0271848 0.0132333
-0.0114485 0.0272633 0.0131
-0.0293569 0.0483659 0.01755
-0.0139089 0.0250841 0.0226
-0.014218 0.0456112 -0.0027
-0.0141249 0.0249772 0.0231
-0.0348712 0.0471915 0.0285
-0.0153173 0.0246258 0.0251667
-0.0175208 0.0231318 0.0321333
-0.0354758 0.0472972 0.02825
-0.0177492 0.0229047 0.0328
-0.0190571 0.0227838 0.03395
-0.0724875 0.0271984 0.0206
-0.0193858 0.0227301 0.0342
-0.0197409 0.0225842 0.0343
-0.0393331 0.0456521 0.0439
-0.0210134 0.0223492 0.0354
-0.0234507 0.0222145 0.0366
-0.0165158 0.0247565 0.0286333
-0.0578471 0.0478745 0.054
-0.023614 0.0221393 0.03695
-0.0594483 0.0474904 0.0478
-0.0252096 0.0216344 0.0393
-0.0279795 0.0212375 0.0409667
-0.0208305 0.0527544 0.00955001
-0.0283616 0.0212425 0.041125
-0.0388303 0.0461989 0.04408
-0.0289425 0.0211565 0.041525
-0.0295538 0.0211842 0.0419333
-0.0334104 0.0208281 0.04316
0.0275339 0.0462274 0.0554889
-0.0354992 0.0205942 0.0439667
-0.0359013 0.0206248 0.044
-0.0384177 0.0203479 0.0447667
-0.0288699 0.0291593 0.0396
-0.0982626 0.0505018 0.0129
-0.0398615 0.0203408 0.0448
-0.0479289 0.0207088 0.0441333
-0.00933063 0.0459497 0.0114
-0.0473454 0.0227899 0.0444
-0.0485487 0.0206677 0.0438
-0.0488766 0.0207107 0.0436
-0.0216691 0.0254536 0.0358
-0.0219842 0.0241682 0.03605
-0.0494424 0.0334689 0.0418
-0.0559743 0.0210031 0.0417
-0.0719704 0.0256681 0.020525
-0.0724116 0.0256252 0.020725
-0.00927558 0.0271751 0.0142
-0.00991512 0.0273047 0.0136
-0.0373691 0.030804 0.0407
-0.0175141 0.0331576 0.01565
-0.0102289 0.0273479 0.0134
-0.0156811 0.0246693 0.0258
-0.00679335 0.0461998 0.0107
-0.0161053 0.0244965 0.0266
-0.0169945 0.02387 0.0295
0.00816092 0.0471064 -0.0063
-0.0171454 0.0237188 0.0302
-0.0394511 0.0332759 0.04058
-0.0209179 0.0226631 0.0354667
-0.0288808 0.0339811 0.0389
-0.0213369 0.0226698 0.035625
-0.0218022 0.0226427 0.03575
-0.0225135 0.0226661 0.03598
-0.0334107 0.0337459 0.03995
-0.0240939 0.0221539 0.038
-0.0242626 0.0220888 0.0383
-0.0278709 0.021429 0.0408
-0.0286891 0.0213426 0.0412
-0.0299186 0.0212581 0.042125
-0.030333 0.0212255 0.042275
-0.0753272 0.0257062 0.021
-0.0306704 0.02122 0.0423
-0.0309837 0.0211983 0.0424
-0.0328595 0.0212831 0.0428
-0.0738469 0.0276028 0.020675
-0.0337721 0.020889 0.0433
-0.0369736 0.0207053 0.04415
-0.026983 0.0537091 0.0172
-0.0374154 0.0208129 0.044175
-0.0384504 0.0207048 0.0445
-0.022997 0.0232222 0.03645
-0.0394367 0.0207474 0.04458
-0.0399348 0.0207151 0.044625
-0.0403734 0.0207096 0.04465
-0.0359201 0.035273 0.04102
-0.0408855 0.020685 0.04466
-0.0174026 0.0336643 0.0154
-0.0419231 0.0206987 0.0447
-0.0429028 0.0206842 0.0447667
-0.0829826 0.0297715 0.0113
-0.0470236 0.0301308 0.0425
-0.0434027 0.0206553 0.0449
-0.0439416 0.0206783 0.0450143
-0.0449468 0.0206444 0.04495
-0.045578 0.020677 0.0448
-0.0464114 0.0206987 0.0447
-0.0468848 0.0207096 0.04465
-0.0492055 0.0208674 0.0434
-0.0499929 0.0212234 0.04302
-0.0505984 0.0211686 0.0428
-0.00489604 0.0463665 0.0085
-0.0450108 0.0497373 0.0366667
-0.0510132 0.021095 0.0427
-0.00399129 0.0465427 -0.0035
-0.0518451 0.0211766 0.0425
-0.0529325 0.0211753 0.0424
-0.0538976 0.0211711 0.042525
-0.0543948 0.0211821 0.04258
-0.0280105 0.0456109 0.0120667
-0.0548578 0.0211874 0.04245
-0.0550573 0.021105 0.0423
-0.046014 0.0342811 0.04245
-0.0560055 0.021159 0.04205
-0.0208703 0.0306415 0.0301
-0.0564724 0.0212733 0.04216
-0.0569568 0.0212322 0.0420667
-0.0349716 0.0466769 0.0420667
-0.057394 0.0212734 0.04216
-0.058468 0.0212472 0.042175
-0.0730066 0.0257278 0.0209
-0.0733963 0.025717 0.02095
-0.073926 0.0257062 0.021
-0.024356 0.0502339 0.04225
-0.0744551 0.0256954 0.02105
-0.0309429 0.0243348 0.0418
-0.0313736 0.0337177 0.0396833
-0.0759514 0.0257278 0.0209
-0.0765123 0.0257278 0.0209
-0.0583847 0.030677 0.0390667
-0.055834 0.0337638 0.03898
-0.108417 0.0274127 0.0131
-0.109016 0.0274127 0.0131
-0.0548296 0.0465032 0.0331
-0.00957943 0.0274932 0.0141
-0.0103576 0.0275914 0.01365
-0.0114395 0.0276897 0.0132
-0.014959 0.0252154 0.02515
-0.0463148 0.0321481 0.0423
-0.0151831 0.0250037 0.0255
-0.0155125 0.0248836 0.02605
-0.0170099 0.0242823 0.0294
-0.0190571 0.0232834 0.03395
-0.019395 0.0232394 0.03415
-0.0228896 0.0227486 0.0362
-0.0558561 0.0241772 0.0415
-0.028921 0.0311582 0.039175
0.0466465 0.0491811 0.0363
-0.0252592 0.0222348 0.03948
-0.0279344 0.021816 0.04074
-0.0393902 0.0465781 0.045125
-0.0284459 0.0217039 0.0409667
-0.0287981 0.0216861 0.041225
-0.0543964 0.0462596 0.0386
-0.01369 0.0481233 0.0026
-0.0290806 0.0216367 0.04145
-0.0344508 0.0211771 0.04344
-0.034934 0.0211757 0.04355
-0.035379 0.0211702 0.043575
-0.036467 0.0211428 0.0437
-0.051544 0.0267689 0.0422
-0.0369441 0.0209783 0.0439333
-0.0383807 0.0208983 0.0443
-0.0485487 0.0210075 0.0438
-0.0489902 0.0211647 0.0436
-0.0503748 0.0213183 0.0429
-0.07341 0.0262627 0.0207
-0.0057683 0.0472269 -0.0015
-0.0739882 0.0260082 0.0209
-0.00751264 0.046086 -0.0097
-0.0744089 0.0260082 0.0209
-0.0758112 0.0260082 0.0209
-0.00826104 0.0461226 -0.0043
-0.0764362 0.0260301 0.0208
-0.0456195 0.0372669 0.0403
-0.107819 0.0277115 0.0131
-0.10846 0.0277224 0.01305
-0.109016 0.0277115 0.0131
-0.00150972 0.0461283 -0.0087
-0.0100123 0.0277565 0.01425
-0.0348321 0.0303668 0.0406
-0.0114124 0.0279221 0.0135
-0.0594712 0.0274064 0.0403
-0.0151565 0.0252292 0.0257
-0.0153582 0.0251188 0.0262
-0.0164046 0.0246774 0.0282
0.00473838 0.0466395 -0.007
-0.0175338 0.0240593 0.031
-0.0177089 0.023949 0.0315
-0.0507526 0.0463737 0.0399
-0.0187939 0.0557389 0.0159
-0.0749562 0.0322911 0.022025
-0.0181859 0.0236995 0.0332
-0.0184634 0.0235837 0.0335333
-0.0204609 0.0232835 0.035075
-0.0229206 0.0478013 0.0141
-0.0207869 0.0232335 0.0353
-0.0209933 0.0231891 0.0355
-0.0216691 0.0231225 0.0358
-0.0237988 0.0228119 0.0372
-0.0240618 0.0227176 0.037625
-0.0344158 0.0347493 0.04045
-0.0259242 0.0221461 0.0402
-0.00786522 0.0453214 0.0106
-0.0264587 0.022219 0.0404
-0.0449066 0.0306857 0.04256
-0.030333 0.0216857 0.042275
-0.0528334 0.0221019 0.0423
-0.0309837 0.0216579 0.0424
-0.0318622 0.0216303 0.042525
-0.0296711 0.0219067 0.0418
-0.0369205 0.0212561 0.0437
-0.0379867 0.0212727 0.0439667
-0.0419231 0.0211476 0.0447
-0.0350416 0.0445717 0.0423
-0.0424617 0.0211365 0.04475
-0.0429592 0.021251 0.04494
-0.0604801 0.0472101 0.0462
-0.0743933 0.0285803 0.0207
-0.043418 0.0212095 0.04505
-0.0238532 0.0493432 0.0422667
-0.0454023 0.0212077 0.0449333
-0.0463749 0.0211309 0.044775
-0.0148249 0.0323081 0.0161
-0.0478956 0.0212585 0.0442
-0.0483348 0.0213029 0.044
-0.0513596 0.0216247 0.04255
-0.052243 0.021658 0.0424
-0.0528717 0.0216801 0.0423
-0.0532168 0.0216802 0.0423
-0.0534933 0.0216524 0.042425
-0.057531 0.0216492 0.0422667
-0.0739719 0.0263328 0.0207
-0.074331 0.0263108 0.0208
-0.0749239 0.0263218 0.02075
-0.0754537 0.0263108 0.0208
-0.0162837 0.0314429 0.0172
-0.105509 0.0565488 0.00930001
-0.108481 0.0282392 0.0129667
-0.108909 0.0281468 0.0129333
-0.0104439 0.0280192 0.0144
-0.0109093 0.028075 0.01415
0.0410174 0.0472037 0.0391333
-0.0113583 0.0280861 0.0141
-0.0155438 0.025253 0.0268
-0.0157405 0.0251414 0.0273
-0.016017 0.0250834 0.02815
-0.0174277 0.0246574 0.03005
-0.0177742 0.0242937 0.0311
-0.0195473 0.0237716 0.034
-0.0198488 0.0237757 0.0341667
-0.0227861 0.0232558 0.0363
-0.0265326 0.0276113 0.03645
-0.0246442 0.0225983 0.0387
-0.0469811 0.0513238 0.0399
-0.0248031 0.0227574 0.0387
-0.027927 0.0222915 0.0406
-0.0372847 0.0237559 0.04275
-0.0284255 0.022293 0.0407667
-0.0373983 0.046732 0.0465667
-0.0285429 0.0221075 0.0409
-0.00942241 0.0296459 0.01805
-0.0120529 0.0464778 0.0064
-0.0294325 0.0221905 0.0415667
-0.0258635 0.0271891 0.0362
0.0109634 0.0458 0.0018
-0.0334725 0.0217349 0.04298
-0.0419074 0.0377015 0.04064
-0.0339298 0.021714 0.043175
-0.0349883 0.0215498 0.0434
-0.0358982 0.0215498 0.0434
-0.00547126 0.0463035 0.00955001
-0.0440254 0.0498504 0.0366
-0.036929 0.0216639 0.0435
-0.0929579 0.0337183 0.0152
-0.0397328 0.021349 0.0443
-0.0457541 0.0213271 0.0449
-0.0489902 0.0216187 0.0436
-0.0494841 0.021686 0.0433
-0.0103135 0.029011 0.0177
-0.0499546 0.021742 0.04305
-0.0505411 0.021798 0.0428
-0.0572993 0.0217729 0.0424
-0.0719855 0.0267991 0.0205
-0.0565175 0.0317979 0.03865
-0.0749084 0.0267074 0.0207
-0.0815554 0.0286884 0.0114
-0.0820097 0.0286884 0.0114
-0.0824639 0.0286884 0.0114
-0.00674081 0.047202 0.0117
-0.0100754 0.028112 0.0153
-0.0103774 0.0281346 0.0152
-0.0154614 0.0253843 0.0274
0.0434499 0.0561157 0.03955
-0.0160009 0.0252961 0.0285667
-0.0164614 0.0251978 0.029
-0.0583908 0.0477231 0.0521667
-0.0155298 0.0466298 0.0106333
-0.0170099 0.0249334 0.0294
-0.0964777 0.0594949 0.00470001
-0.0176304 0.0247079 0.0304
-0.0345978 0.026806 0.0429
0.00686633 0.046291 -0.0081
-0.0183372 0.0242363 0.03305
-0.020286 0.0237386 0.0347
-0.0205992 0.0236709 0.035
-0.058312 0.0231196 0.04205
-0.05585 0.0266043 0.0411
-0.0209023 0.0238055 0.0351333
-0.0213469 0.0236643 0.035575
-0.0220001 0.023696 0.035975
-0.0237988 0.023296 0.0372
-0.0254328 0.0227763 0.0396667
-0.0255309 0.0225663 0.0399
-0.0574499 0.0271658 0.04075
-0.0129701 0.0350468 0.0157
-0.0259329 0.0226238 0.0401667
-0.0388316 0.0458826 0.04905
-0.0296711 0.0222536 0.0418
-0.0248931 0.0516446 0.0427
-0.0299262 0.0221856 0.0421
-0.0314112 0.0222097 0.0425
-0.0318595 0.022202 0.0425333
-0.0781603 0.0500725 0.019
-0.0323657 0.0222042 0.04265
-0.00783769 0.045771 0.01105
-0.0332601 0.0219125 0.0428
-0.0359354 0.0217998 0.0433
-0.0338637 0.0469892 0.0462
-0.0398871 0.0217098 0.0442
-0.0408973 0.0216474 0.044475
-0.0418655 0.0216455 0.04478
-0.040334 0.0458896 0.0434
-0.0422154 0.0214616 0.0448
-0.036914 0.0408178 0.0390667
-0.0460264 0.0214616 0.0448
-0.0374633 0.0311159 0.04045
-0.0463627 0.0216858 0.0448
-0.0468357 0.0216972 0.04475
-0.0474332 0.0216531 0.04445
-0.0584866 0.0476253 0.0531
-0.0283688 0.0452354 0.0411
-0.0483348 0.021755 0.044
-0.0254709 0.0474132 0.01395
-0.0513684 0.0222022 0.0425333
-0.00322218 0.0483521 0.0073
-0.0518718 0.0221063 0.04245
-0.0525266 0.0221403 0.0423
-0.053443 0.0222059 0.0425167
-0.0563673 0.0222191 0.04266
-0.0133047 0.0280779 0.018
-0.0279228 0.0253086 0.039775
-0.0158425 0.045284 -0.00219999
-0.056867 0.0221982 0.04255
-0.0573749 0.0222172 0.0424667
-0.0579715 0.0221019 0.0423
-0.0584232 0.0221515 0.04225
-0.0815178 0.0292159 0.0113
-0.0829826 0.0291653 0.0113
-0.107441 0.0287529 0.0129
-0.0097347 0.028269 0.0159
-0.0440178 0.0292369 0.0428
-0.010495 0.0283487 0.01555
-0.00888084 0.0332142 0.0176
-0.0109476 0.0283829 0.0154
-0.0170205 0.0267543 0.031
-0.0121212 0.0283829 0.0154
-0.0156288 0.02549 0.0281
0.00727354 0.0463145 -0.00929999
-0.018254 0.0244193 0.0328
-0.0186714 0.0243054 0.0333
-0.0190125 0.0242599 0.0335
-0.0348881 0.0257649 0.0426
-0.0199633 0.0242292 0.034
-0.0514912 0.0426412 0.03725
-0.020439 0.0240829 0.03455
-0.0227861 0.0236221 0.0363
-0.0242851 0.0233032 0.0377
-0.0269549 0.0228283 0.0403
-0.0383143 0.0326932 0.0401667
-0.0375212 0.038715 0.0404
-0.0270451 0.0226881 0.0404
-0.027955 0.0227825 0.0405
-0.0449703 0.0236785 0.0449
-0.0289556 0.0226489 0.0410833
-0.0293838 0.0225303 0.0416
-0.030639 0.0222325 0.0424
-0.0394663 0.0362366 0.0414
-0.02546 0.0311892 0.0383
-0.0329336 0.0222673 0.04275
-0.00799197 0.0627006 0.000400007
-0.0332601 0.0222559 0.0428
-0.0658789 0.0476716 0.0416
-0.0335192 0.0221872 0.0429333
-0.0354027 0.0221642 0.0432
-0.0364096 0.0221528 0.04325
-0.0370356 0.0220047 0.0434
-0.044382 0.0217063 0.0452
-0.0488935 0.0221939 0.0435667
-0.0104404 0.0295386 0.0179
-0.0492055 0.0221184 0.0434
-0.0499932 0.0222158 0.042975
-0.094873 0.0473126 0.015
-0.0504267 0.0222559 0.0428
-0.0721262 0.0272212 0.0205
-0.0508222 0.0222787 0.0427
-0.0544322 0.0222558 0.0428
-0.0577589 0.0222325 0.0424
-0.0587985 0.0222781 0.0422
-0.00538132 0.0470895 -0.000100002
-0.0729093 0.0271984 0.0206
-0.0149392 0.0358109 0.0147333
-0.0534137 0.0476003 0.03955
-0.0733311 0.0271984 0.0206
-0.0504934 0.0241737 0.04245
-0.0117914 0.0466748 0.00210001
-0.0738934 0.0271984 0.0206
-0.0744193 0.0272616 0.0207333
-0.107326 0.029125 0.0128
-0.0277831 0.051665 0.0438
-0.00939682 0.0284232 0.0165
-0.00969548 0.0284462 0.0164
-0.0100027 0.0284922 0.0162
-0.0391521 0.0272253 0.0418
-0.0104486 0.0285152 0.0161
-0.0111959 0.0285613 0.0159
-0.0130921 0.028239 0.0173
-0.06415 0.0396484 0.0294
-0.0167646 0.0254773 0.0293
-0.0174515 0.0253392 0.0299
-0.0184805 0.0247633 0.03295
-0.018819 0.0247113 0.033175
-0.0108425 0.0462184 -0.0025
-0.0401793 0.0406304 0.0404
-0.019156 0.0245337 0.0334
-0.0457695 0.0251537 0.0444
0.00676897 0.0470098 -0.006
-0.0199734 0.0247091 0.033725
-0.020782 0.0242345 0.0347
-0.0214649 0.0241503 0.0356
-0.0243088 0.0236876 0.0376
-0.0247658 0.023429 0.0382
-0.0253533 0.0233174 0.0392
-0.0255369 0.0231933 0.0395667
-0.0258796 0.0232258 0.0397667
-0.0584686 0.0480344 0.050625
-0.0259763 0.0230147 0.04
-0.0274244 0.0229457 0.0403
-0.0295438 0.0227159 0.0419667
-0.0298666 0.0226879 0.04222
-0.0302102 0.0224854 0.0423
-0.0462674 0.0316556 0.0424
-0.0304222 0.0227092 0.04245
-0.04438 0.0242831 0.044725
-0.0100955 0.0459854 0.0113
-0.0384077 0.0222843 0.0436667
-0.0389937 0.0221171 0.0439
0.00101576 0.0457948 0.00470001
-0.0399079 0.0221725 0.04415
-0.0405918 0.0222272 0.0444
-0.0473646 0.0221534 0.044475
-0.0478956 0.0221609 0.0442
-0.0527567 0.0227154 0.0423
-0.0529982 0.0226922 0.0424
-0.057859 0.0225715 0.042425
-0.0582782 0.0224854 0.0423
-0.0307119 0.0495283 0.0249
-0.0719704 0.0276375 0.020525
-0.0318672 0.0462753 0.0162
-0.0733779 0.0275733 0.0206
-0.0299075 0.0322572 0.03945
-0.107541 0.0292517 0.0129
-0.108417 0.0292057 0.0131
-0.109016 0.0292057 0.0131
-0.0109874 0.0286907 0.0166
-0.0243221 0.0502923 0.015275
-0.0114233 0.0286907 0.0166
-0.0423037 0.0446403 0.0383
-0.0144149 0.0277375 0.0207
-0.015226 0.0271795 0.0231
-0.0271085 0.0270899 0.0375
-0.0168567 0.0258098 0.02955
-0.017314 0.0257165 0.02995
-0.0359103 0.0253478 0.04244
-0.0191739 0.024808 0.0333
-0.0222977 0.0242325 0.0363
-0.030026 0.0305998 0.03945
-0.0168816 0.0522932 0.0119333
-0.0789451 0.0486934 0.0179333
-0.0231848 0.0240174 0.0367
-0.0234868 0.0241961 0.036975
-0.0248979 0.0238001 0.03815
-0.0481553 0.0335285 0.0423
-0.0254163 0.0236133 0.03895
-0.0274911 0.023282 0.0402
-0.0360031 0.0290976 0.0425
-0.0279833 0.0231572 0.0404
-0.0283855 0.0232199 0.0406333
-0.0329252 0.0227195 0.042775
-0.0333364 0.0227518 0.0428
-0.0212466 0.0305355 0.0317
-0.034439 0.0226611 0.043025
-0.0395191 0.0271235 0.04175
-0.0348868 0.0226553 0.04305
-0.0213542 0.0266671 0.03566
-0.0354082 0.0226301 0.04306
-0.0429083 0.0220853 0.04525
-0.0448403 0.0221586 0.045175
-0.0180795 0.0382908 0.0127
-0.0453466 0.0221878 0.04505
-0.0476203 0.0222504 0.0443
0.0125997 0.0455075 0.0017
-0.0514817 0.0467668 0.03505
-0.0500061 0.0225643 0.04295
-0.03635 0.0232858 0.0428
-0.0293812 0.0356516 0.039225
-0.0503677 0.0227596 0.0427667
-0.0513859 0.0227837 0.0425
-0.046842 0.0328047 0.0424
-0.0538917 0.0227234 0.04266
-0.054453 0.022774 0.04264
-0.0549605 0.0227429 0.042675
-0.0243746 0.046984 0.0127
-0.0559204 0.0227605 0.0426
-0.0568815 0.022778 0.042525
-0.00845779 0.0470262 -0.0019
-0.0573366 0.0227533 0.0424667
-0.107326 0.0295742 0.0128
-0.0404445 0.0356839 0.04175
-0.107541 0.0297007 0.0129
-0.107883 0.0296714 0.013025
-0.00890399 0.0457888 0.011
-0.038162 0.045534 0.0336
-0.108439 0.0296598 0.013075
-0.00946877 0.0287816 0.01745
-0.0184455 0.0468431 -0.000349991
-0.00989766 0.0287699 0.0175
-0.0103304 0.0287699 0.0175
-0.0314003 0.0472166 0.044625
-0.0119266 0.0287934 0.0174
-0.0124938 0.0287699 0.0175
-0.0144874 0.0281593 0.0201
-0.0159023 0.0262116 0.02895
-0.0162432 0.0261289 0.0293
-0.0164815 0.0260936 0.02945
-0.0479494 0.0402475 0.0396
-0.0175982 0.0256933 0.0306
-0.0368573 0.0477774 0.02805
-0.0177742 0.025704 0.0311
-0.0429473 0.0266445 0.0441667
-0.0179644 0.0256096 0.0315
-0.0188366 0.0252379 0.033075
-0.0211138 0.0246834 0.0349
-0.0260643 0.0311882 0.0384333
-0.0239081 0.0242525 0.03725
-0.0243906 0.0241553 0.03756
-0.0210245 0.0405445 0.00930001
-0.0539021 0.0242605 0.0421
-0.0249346 0.0240755 0.038
-0.0252778 0.0238262 0.03855
-0.040971 0.02805 0.04215
-0.0263691 0.0237136 0.0397
-0.0264737 0.0235092 0.0399
-0.0290806 0.0232612 0.04145
-0.0295036 0.0230693 0.0421
-0.0390178 0.0296944 0.042425
-0.0299495 0.022922 0.0424
-0.0221537 0.0473219 0.0134
-0.0384343 0.0227537 0.0436
-0.038921 0.0227064 0.0438
-0.039475 0.0226508 0.04394
-0.0129075 0.0372079 0.0163
-0.0439637 0.0396433 0.0394333
-0.0403172 0.022713 0.04425
-0.0218383 0.0502634 0.0135
-0.0414992 0.0223349 0.0449
-0.0429889 0.0223659 0.0454
-0.0438428 0.0223288 0.0454
-0.0476203 0.0224758 0.0443
-0.0484858 0.0227301 0.0437
-0.0384101 0.0253458 0.0428
-0.0959969 0.0411506 0.0103
-0.0934641 0.042621 0.0123
-0.0957404 0.0603565 0.00770001
-0.0489527 0.0227892 0.04345
-0.0723635 0.030651 0.0221
-0.0520276 0.0262393 0.0422
-0.0312696 0.0487138 0.0174
-0.0430701 0.0364283 0.0413
-0.0499689 0.0228281 0.0428
-0.057588 0.0229455 0.0423
-0.0579925 0.0230841 0.0422
-0.0588333 0.0230277 0.04195
-0.0724875 0.0281826 0.0206
-0.0218482 0.0484655 0.0143
-0.0733574 0.0282215 0.0206333
-0.0738469 0.0281648 0.020675
-0.00887352 0.029011 0.0177
0.00950789 0.046352 0.00400001
-0.0199752 0.0465076 0.0081
-0.00944951 0.029011 0.0177
0.0103917 0.0469649 0.00500001
-0.0119121 0.0291906 0.01755
-0.0130388 0.0289872 0.0178
-0.00586206 0.04664 -0.00379999
-0.0154498 0.0283942 0.0203
-0.0180287 0.0257566 0.0321333
-0.0207366 0.0251977 0.0343
-0.0219579 0.0247508 0.036175
-0.0463363 0.0262968 0.043925
-0.026422 0.0462341 0.0417
-0.0234635 0.0246184 0.0369
-0.0247669 0.0242668 0.0377
-0.0119916 0.046456 -0.00219999
-0.0255167 0.0240651 0.03855
-0.0392608 0.0228197 0.0438
-0.0257604 0.0239584 0.039
-0.028414 0.0237118 0.0405333
-0.0304431 0.0231915 0.042475
-0.0109338 0.0445773 -0.0037
-0.0287461 0.0471122 0.0418
-0.0340261 0.0230332 0.0429
-0.0344834 0.0230332 0.0429
-0.0349047 0.0230095 0.043
-0.0359326 0.0230095 0.043
-0.0724559 0.0372917 0.022025
-0.0599069 0.0477775 0.0520667
-0.0365543 0.0230936 0.0429667
-0.05889 0.0426718 0.0311
-0.0405705 0.022778 0.04445
-0.0409202 0.0227224 0.0446833
-0.0414481 0.0226429 0.0450167
-0.0304482 0.0241099 0.04168
-0.0419116 0.0227029 0.0452333
-0.0241112 0.0446083 0.0109
-0.042376 0.0227188 0.0453
-0.0443586 0.022699 0.04525
-0.0463627 0.0226946 0.0448
-0.0434561 0.0267121 0.04414
-0.0493583 0.0230999 0.0431
-0.0496888 0.0230332 0.0429
-0.0238257 0.0443386 0.0108
-0.0499097 0.0232175 0.0427667
-0.0348847 0.0347493 0.04045
-0.0509137 0.023237 0.042525
-0.0517833 0.0232667 0.0424
-0.0520665 0.0232906 0.0423
-0.0523732 0.0233289 0.0423
-0.0751746 0.0312129 0.0219
-0.05299 0.0232093 0.0424
-0.0484565 0.0472328 0.0409
-0.0534796 0.0232549 0.04245
-0.0543706 0.0231281 0.0425
-0.0345496 0.0470396 0.0443
0.0463854 0.0478562 0.0367
-0.0549704 0.0233026 0.04225
-0.0553297 0.0233086 0.042225
-0.0558912 0.0231874 0.04225
-0.037388 0.0342116 0.04065
-0.0563803 0.0231993 0.0422
-0.0489471 0.0321358 0.0416333
-0.0592794 0.0233891 0.0414
-0.0290299 0.0353185 0.0389333
-0.0814421 0.0305766 0.0111
-0.0819133 0.0307344 0.011075
-0.107541 0.0301496 0.0129
-0.108054 0.0301259 0.013
-0.108417 0.0301021 0.0131
-0.0715313 0.035302 0.022175
-0.0531323 0.0335105 0.0403
-0.00885533 0.029239 0.01795
-0.00943013 0.029239 0.01795
-0.0568102 0.0242877 0.04105
-0.00986534 0.029251 0.0179
-0.0563503 0.0342022 0.03895
-0.0140272 0.0289396 0.0192
-0.00897496 0.0342068 0.0169667
-0.019505 0.0256272 0.03355
-0.0404747 0.0416312 0.04025
-0.0216483 0.0249389 0.0359
-0.0222977 0.024843 0.0363
-0.0379174 0.0268566 0.0423
-0.0231848 0.0247472 0.0367
-0.0075356 0.0597088 0.000733331
-0.0244773 0.0245795 0.0374
-0.0474585 0.0336721 0.04255
-0.0333983 0.0481807 0.0191
-0.0249035 0.0245236 0.0376333
-0.0257247 0.0243879 0.0382
-0.025969 0.0242801 0.03865
-0.0488687 0.0487355 0.0421
-0.0274467 0.0242083 0.0399333
-0.0294524 0.0236746 0.0415
-0.00860084 0.0457828 -0.0043
-0.031518 0.043912 0.0396
-0.0298521 0.0237049 0.041775
-0.0154644 0.0327183 0.01565
0.0410777 0.0462476 0.0381
-0.0298415 0.0234775 0.042
-0.0303407 0.0234176 0.04225
-0.0137996 0.0478563 0.00150001
-0.0408134 0.0280925 0.0428
-0.0349768 0.0232858 0.0428
-0.0339391 0.0472284 0.0466
-0.0929947 0.0578163 0.00490001
-0.0358923 0.0232858 0.0428
-0.0779042 0.0487642 0.018175
-0.037745 0.0233339 0.0432333
-0.0384353 0.0461427 0.0476
-0.0379834 0.0232179 0.0434
-0.0416531 0.0272689 0.0408
-0.0384543 0.0232198 0.04355
-0.0574377 0.034235 0.0385
-0.0389412 0.0231716 0.04375
-0.0399426 0.0232083 0.0440667
-0.0426176 0.022663 0.0454
-0.0484648 0.0231538 0.0436667
-0.0544822 0.0234056 0.0423
-0.0375138 0.0257024 0.04275
-0.0313789 0.0478348 0.0224
-0.0558033 0.0234775 0.042
-0.0562067 0.0235015 0.0419
-0.0569386 0.023736 0.0415667
-0.0570153 0.0235015 0.0419
-0.0484165 0.0451871 0.0371
-0.0574479 0.0234895 0.04195
-0.0306431 0.0257246 0.0409
-0.0503818 0.0471975 0.0404
-0.0582858 0.0235015 0.0419
-0.0594598 0.0238097 0.0411
-0.0349722 0.0331795 0.039525
-0.0738314 0.0287207 0.0207
-0.00812687 0.0294902 0.0181
-0.0647106 0.0482121 0.0491
-0.0108896 0.0297311 0.0177
-0.0123546 0.0297917 0.01745
-0.0127614 0.029587 0.0177
-0.0133821 0.0296654 0.0181667
-0.013514 0.029345 0.0187
-0.0138849 0.0292241 0.0192
-0.00232949 0.046432 0.00470001
-0.0150646 0.0290305 0.02
-0.0267098 0.0251317 0.0381
-0.0168869 0.0265629 0.0302
-0.0179441 0.0262645 0.0321333
-0.0180688 0.0260307 0.0324
-0.0113863 0.0322183 0.017
-0.0509659 0.0237203 0.042425
-0.020056 0.0257805 0.03395
-0.0203601 0.0257026 0.0341
-0.0216483 0.025184 0.0359
-0.0229194 0.0251363 0.0364333
-0.00391382 0.0463291 0.00500001
-0.0233928 0.0251024 0.03664
-0.0258258 0.0247243 0.0378
-0.0564916 0.0292061 0.0400333
-0.0260155 0.024676 0.038
-0.0263099 0.0248119 0.0381
-0.0264992 0.0246105 0.0386
-0.0559805 0.0275804 0.0408
-0.0266853 0.0244098 0.0391
-0.0494411 0.046229 0.049525
-0.0279569 0.0242916 0.040075
-0.0635703 0.0484798 0.0492
-0.0282461 0.0242369 0.0403
-0.028548 0.0241944 0.040475
-0.0314602 0.023672 0.0424667
-0.0128874 0.0458271 -0.00285
-0.033426 0.0236657 0.04265
-0.0239002 0.0472532 0.0427
-0.0338671 0.0236535 0.0427
-0.0344012 0.0236355 0.04268
-0.0374683 0.023703 0.0429667
-0.0668484 0.0473702 0.04555
-0.0403172 0.0232767 0.04425
0.0453882 0.0538938 0.0425
-0.0405493 0.0232159 0.0445
-0.0414506 0.0232035 0.0450111
-0.0296561 0.0304662 0.0395
-0.0429972 0.0229099 0.0453
-0.027865 0.0480594 0.0232
-0.0434432 0.0229099 0.0453
-0.0218308 0.0487227 0.0144
-0.0449073 0.0231982 0.0450333
-0.0589236 0.0452665 0.03275
-0.0460264 0.023143 0.0448
-0.0487001 0.0233454 0.0435
-0.0528717 0.0237508 0.0423
0.00412589 0.0461476 -0.00989999
-0.0239533 0.0517692 0.0149
-0.053847 0.0237751 0.0422
-0.0379563 0.0276901 0.0422
-0.0543493 0.0237934 0.042125
-0.045711 0.0469868 0.0401
-0.0548522 0.0236962 0.04205
-0.0553701 0.0237204 0.04195
-0.0559458 0.0237687 0.04175
-0.0577964 0.0237687 0.04175
-0.0604103 0.0242369 0.0403
-0.0188366 0.0262452 0.033075
-0.0215407 0.0421966 0.0099
-0.0263788 0.0452383 0.0117
-0.0204683 0.0257955 0.0344
-0.0424387 0.0582553 0.03065
-0.0179429 0.0347386 0.0147
-0.0363354 0.0472081 0.0416
-0.0489295 0.0463965 0.0383
-0.02128 0.0255757 0.0353
-0.018339 0.0466617 -0.000799999
-0.0213965 0.0256828 0.0355333
-0.0234474 0.0282007 0.036075
-0.0174724 0.0529476 0.0149
-0.023899 0.0252984 0.0367667
-0.0244998 0.0252495 0.0369667
-0.0492141 0.0419202 0.0387
-0.025816 0.025273 0.0372
-0.0260094 0.0250261 0.03755
-0.0267911 0.0247452 0.0387
-0.0273138 0.0246583 0.0397
-0.0294572 0.0242938 0.04112
-0.0298928 0.0240734 0.04145
-0.0313606 0.0238658 0.0423
-0.00782863 0.0460212 0.0112
-0.037923 0.0237681 0.0431667
-0.0474046 0.0302412 0.0422667
-0.0384741 0.0235726 0.0435
-0.0389579 0.0236993 0.04354
-0.0758591 0.0319622 0.0217
-0.039945 0.023695 0.043925
-0.0423729 0.023269 0.0452
-0.0439471 0.0232752 0.045175
0.00838687 0.0472111 0.00655001
-0.0184648 0.046843 0.0089
-0.058444 0.0258413 0.04045
-0.0473949 0.0233772 0.0443
-0.0619457 0.0473891 0.04602
-0.0489866 0.0237897 0.0432333
-0.0483679 0.0373043 0.0402
-0.0550494 0.0241503 0.0417667
-0.0554236 0.0241404 0.04165
-0.0564628 0.0242385 0.04125
-0.0581185 0.0240856 0.0414
0.00469003 0.0471914 -0.00549999
-0.05958 0.0242077 0.0409
-0.0728663 0.0290933 0.0209
-0.0604173 0.0325207 0.0375
-0.0744385 0.0289956 0.0213
-0.00841392 0.0300643 0.0181
-0.0387227 0.0293873 0.0423
-0.00884819 0.0302202 0.01805
-0.0109118 0.0302246 0.01745
0.0486627 0.0456628 0.0237
-0.0113492 0.0302369 0.0174
-0.0119461 0.0302863 0.0172
-0.0123798 0.0302863 0.0172
-0.0225718 0.0504499 0.0425
-0.013592 0.030089 0.018
-0.0138452 0.030015 0.0183
-0.0141085 0.0299656 0.0185
-0.0158433 0.0297314 0.01945
-0.018541 0.0266147 0.0326
-0.0312192 0.0341505 0.0398
-0.0202388 0.0260689 0.0343
-0.020439 0.0261314 0.03455
-0.0229302 0.0257225 0.0362
0.0489445 0.0541994 0.0339667
-0.0431818 0.046157 0.0383
-0.0515161 0.0359483 0.0407
-0.000107459 0.0468258 -0.00649999
-0.0239179 0.0460373 0.0103
-0.0234072 0.025624 0.0364333
-0.0238274 0.0256359 0.03655
-0.0264661 0.0252427 0.03765
-0.0345106 0.0465868 0.042175
-0.026844 0.025033 0.0385
-0.0548546 0.0307139 0.039075
-0.0342901 0.0272913 0.0428
-0.0183792 0.037991 0.0127
-0.0280078 0.0247334 0.0400333
-0.0283848 0.0247251 0.040225
-0.0239858 0.0384991 0.0213
-0.0289158 0.0246606 0.04058
-0.0476425 0.0257647 0.0438
-0.0319304 0.0241396 0.0424333
-0.0558743 0.0311089 0.03895
-0.0232055 0.0456751 0.00915001
-0.032385 0.0241285 0.04254
-0.0339193 0.0241489 0.04255
-0.0348819 0.0241799 0.042425
