ply
format ascii 1.0
comment Created by Open3D
element vertex 1476
property float x
property float y
property float z
end_header
-0.0593628 0.0608181 -0.0114967
-0.0577909 0.0328616 -0.00628788
-0.0393193 0.0488558 -0.00780536
-0.0312645 0.00234045 0.00423516
-0.0472631 0.0156867 0.00631446
-0.0238909 0.0368143 -0.0037475
-0.0318044 0.00233754 0.00409667
-0.0328034 0.00228675 0.00373156
-0.0553501 0.0478438 -0.00770768
-0.0337325 0.00237395 0.00361857
-0.0577514 0.0469289 -0.000433823
-0.0411211 0.00567362 0.00374057
-0.0343035 0.00218564 0.0032889
-0.0347074 0.00232442 0.00320004
-0.0397327 0.037264 0.00309882
-0.0592271 0.015807 -0.00086243
-0.0354696 0.00218929 0.00238469
-0.0561995 0.0416789 -0.00819807
-0.0245122 0.0469655 -0.0116118
-0.0358749 0.00219475 0.00180428
-0.0487506 0.0197715 0.00464732
-0.0310735 0.00572496 0.00498051
-0.0362026 0.00238384 0.00161511
-0.0163302 0.0482864 0.00353329
-0.0363106 0.00219839 0.00132181
-0.0523051 0.0142197 0.00522208
-0.0373244 0.00230256 0.000159096
-0.0377833 0.00230506 -0.000259804
-0.0322086 0.0142384 0.00723114
-0.0527109 0.0258342 -0.000410418
-0.0761882 0.0492796 -0.00343418
-0.038734 0.00235254 -0.000799059
-0.0652571 0.0483749 -0.0222321
-0.0391497 0.00234906 -0.000837004
-0.0617811 0.0348134 -0.0114206
-0.0419084 0.00223762 0.0042098
-0.047133 0.0461258 -0.00804421
-0.042733 0.00209275 0.00431109
0.0241325 0.0472665 0.0556465
-0.0434117 0.00208547 0.00438114
-0.0112582 0.00280966 -0.00257397
-0.0412121 0.00987297 0.00784502
-0.0437962 0.00208274 0.0043323
-0.0397848 0.0158526 0.0074566
-0.0442965 0.00208001 0.00421671
-0.0603178 0.0226272 -0.00410947
-0.0613819 0.0138585 -0.00264533
-0.0212915 0.0291992 0.000582283
-0.0452605 0.00207727 0.00383332
-0.0277235 0.00381462 0.00431656
-0.0553827 0.0137378 0.00274277
-0.0641517 0.0481137 -0.0059188
-0.0458034 0.00216326 0.00373156
-0.0656697 0.0197126 -0.00854655
-0.0337643 0.0178353 0.0070643
0.0218808 0.0460551 0.052701
-0.0347199 0.0353946 0.00466504
-0.0462587 0.00220522 0.00363228
-0.0572754 0.0407496 -0.00899244
-0.0467027 0.00224802 0.00348179
-0.0691171 0.0562133 -0.00751544
-0.0640891 0.00381876 -0.0283993
-0.0562963 0.0133195 0.00167648
-0.0619568 0.0372253 -0.0126767
-0.0138632 0.0537096 -0.0133155
-0.0472215 0.00220186 0.0032785
-0.0316659 0.0213131 0.0071788
0.0177302 0.0448155 0.0490807
-0.0492537 0.00218286 0.00323105
-0.065554 0.0481233 -0.0348454
-0.0554776 0.00203083 0.000878984
-0.0562838 0.00578562 0.00156817
-0.0398296 0.0318165 0.00558325
-0.0590864 0.00203629 -0.00155102
-0.0181289 0.0166014 -0.000305364
-0.0151301 0.0528311 -0.0128923
-0.0586449 0.0112551 0.000147288
-0.0602089 0.00203993 -0.00243003
-0.0615568 0.0020454 -0.00355463
-0.057083 0.0472704 0.00653387
0.0332988 0.0478948 0.0281163
-0.0622301 0.00204904 -0.00417427
-0.0597894 0.0278439 -0.00773032
-0.0502232 0.028686 0.00148773
-0.0624528 0.00205086 -0.00441833
-0.0635018 0.00216015 -0.0119522
-0.00516844 0.00284463 -0.00102101
-0.0638703 0.0105989 -0.00939365
-0.00522136 0.00286725 -0.00232172
-0.0611899 0.00739001 -0.00201491
-0.0591968 0.0492698 -0.0103904
-0.027175 0.0112101 0.00405591
-0.0056978 0.00287137 -0.00282774
0.0387916 0.0467919 0.0301328
-0.0313329 0.0452409 -0.0118546
-0.00584491 0.00287754 -0.00325909
-0.0283165 0.0202886 0.00758262
0.0181652 0.0477957 0.0545106
-0.00613631 0.0028837 -0.00377374
-0.00731626 0.00287548 -0.0039931
-0.0593043 0.0084048 -0.000435497
-0.0373917 0.0481988 0.00350739
-0.00864178 0.00284051 -0.0027954
-0.0351066 0.0250627 0.00594288
-0.0561796 0.0102184 0.00205175
-0.00976295 0.00282097 -0.00234574
-0.0591028 0.0302414 -0.00698755
-0.0107754 0.00281275 -0.00246837
-0.0638333 0.0138441 -0.00515764
-0.0115368 0.00280966 -0.0027348
-0.013783 0.00278806 -0.00281918
-0.0745854 0.048394 -0.0245867
-0.0143006 0.00278292 -0.00282934
-0.0451333 0.0470022 0.0260578
-0.0156464 0.00277058 -0.00291352
-0.0361016 0.00548364 0.00456013
-0.0187898 0.0250596 0.000467779
-0.0172196 0.0027459 -0.00243617
-0.0217856 0.00261632 0.00220227
-0.0327732 0.00360453 0.00394146
-0.0539423 0.0235491 0.000379737
-0.0393074 0.0499228 -0.00785621
-0.0251842 0.0110095 0.00405062
-0.0223089 0.00275074 0.00270843
-0.0408536 0.0152434 0.0074746
-0.0231977 0.00258135 0.00334994
-0.0257315 0.00877269 0.00373458
-0.0237487 0.00266773 0.00368618
-0.0118364 0.0466379 -0.00209947
-0.0307071 0.00376787 0.004326
-0.0316702 0.00728417 0.00457831
-0.0246592 0.00255667 0.0038918
-0.0248587 0.00269867 0.00400756
-0.0567002 0.0352102 -0.00467663
-0.0273143 0.00251964 0.00443732
-0.0306166 0.00248468 0.00449377
0.0487036 0.0452597 0.0173803
-0.0391645 0.0104986 0.0061404
-0.0350959 0.00246411 0.00306233
-0.0426971 0.0227784 0.00621782
-0.0554776 0.00229339 0.000878984
-0.0428397 0.00235407 0.00476908
-0.0443639 0.00234275 0.00452414
-0.0620715 0.0384203 -0.0150524
-0.0216563 0.0132296 0.00574102
-0.0453256 0.00233967 0.0041421
-0.0253694 0.0147409 0.00729226
-0.0508641 0.0168749 0.00512067
-0.0296755 0.00729023 0.00561445
0.0199845 0.0565614 0.0529918
-0.0512205 0.00229956 0.00299036
-0.0516765 0.00229956 0.00272709
0.0409023 0.0461619 0.0221138
-0.0520185 0.00229956 0.00252964
-0.0286578 0.0292426 0.00370018
-0.0257008 0.055458 -0.0172632
-0.0523605 0.00229956 0.00233219
0.00215466 0.0471971 -0.00718531
-0.0390835 0.0165871 0.00734189
-0.0526871 0.00230162 0.00202821
-0.0448049 0.0465365 0.023784
0.0372825 0.0458775 0.039192
-0.0537285 0.00229956 0.00154238
-0.0356642 0.00441292 0.00354252
-0.03213 0.00567867 0.0043513
-0.0120504 0.00469803 -0.00164567
-0.0384413 0.0105442 0.0059806
-0.0563054 0.0426653 -0.00964488
-0.0271193 0.0200256 0.00911098
-0.0551365 0.00229339 0.00107591
-0.0562857 0.00229133 0.000527859
-0.0567401 0.00229133 0.000265532
-0.0582168 0.00229133 -0.000587029
-0.0622791 0.0488115 -0.0136711
-0.0384018 0.00878069 0.00380945
-0.0156867 0.00831529 -0.00282134
-0.0622385 0.0487015 -0.0166499
-0.0246227 0.0487224 -0.00746093
-0.0588784 0.00229545 -0.00119995
-0.0630711 0.0273655 -0.0106643
-0.0622463 0.00230916 -0.00391418
-0.035807 0.0231979 0.00594269
-0.0631051 0.00232836 -0.00548778
0.0390741 0.0459986 0.0216357
-0.0497657 0.0063359 0.00472519
-0.0356786 0.00547434 0.00503531
-0.0682315 0.0486652 -0.0350056
-0.0422583 0.0372272 0.00227574
0.0193795 0.0566681 0.0534508
-0.0642613 0.00283421 -0.0287104
-0.0204075 0.0384384 -0.00623972
-0.0662487 0.00288454 -0.0297617
-0.0666551 0.00288402 -0.0299674
-0.0352705 0.020202 0.00694521
-0.0463474 0.0258089 0.00407179
-0.0472545 0.0313537 0.00210474
-0.0672423 0.00283071 -0.0302391
-0.0633507 0.0107013 -0.00534088
-0.00576499 0.00322531 -0.0041367
-0.00624836 0.0032299 -0.00464672
-0.0486934 0.0322413 0.00150493
-0.0532753 0.00365612 0.00269893
-0.0100563 0.00313591 -0.00211096
-0.0453016 0.0229059 0.00525294
-0.00812507 0.0466397 -0.0140441
-0.0326062 0.0456427 -0.0107423
-0.0103733 0.00334325 -0.0019476
-0.0107445 0.00312904 -0.00216189
-0.0655637 0.0211058 -0.00933211
-0.0372917 0.00965337 0.00514319
-0.011708 0.0032824 -0.00237175
-0.0137071 0.00310382 -0.0026022
-0.0432394 0.0352255 0.0030372
-0.0419966 0.0668933 -0.0182423
-0.0152665 0.00330008 -0.0027327
-0.0162786 0.00307516 -0.00264345
-0.0457724 0.0218337 0.00503887
-0.0572438 0.0192378 9.01991e-05
-0.0553301 0.056179 -0.000854526
-0.0168678 0.00322215 -0.00246404
-0.0536044 0.0146927 0.00446231
-0.0103192 0.0460951 0.00270245
-0.0172987 0.00305568 -0.00225088
-0.0609262 0.0322994 -0.00919502
-0.0376224 0.0103075 0.00599151
-0.0193928 0.00299608 -0.000457685
-0.032866 0.0468186 0.00821801
-0.0427603 0.00823045 0.00775942
-0.0312817 0.0211846 0.00703502
-0.0252383 0.00283676 0.00419259
-0.0277925 0.00280123 0.00450761
-0.0162848 0.047381 0.00306873
-0.0467622 0.0297527 0.0029086
-0.0463235 0.00269326 0.00373924
-0.0196711 0.0245819 0.000998157
-0.0576141 0.0542254 -0.00179792
-0.028235 0.00279665 0.00448315
-0.0286929 0.00279091 0.00450742
-0.0648262 0.0298891 -0.0139485
-0.0463865 0.0472616 0.00976502
-0.0667147 0.0485675 -0.0214282
-0.012765 0.03122 -0.0099102
-0.0631082 0.015783 -0.0054318
-0.0642808 0.0323834 -0.0130563
-0.0292901 0.00278404 0.00450907
-0.0358773 0.0288355 0.00507453
-0.0297115 0.0027806 0.00443899
-0.0652317 0.0127273 -0.00538767
-0.0324657 0.00290173 0.00388804
-0.0708689 0.054765 -0.00873852
-0.0348035 0.0132126 0.00724371
-0.0422356 0.0435881 -0.00452388
-0.0313668 0.0276176 0.00498436
-0.0178116 0.0522434 -0.0115537
-0.0327732 0.0028969 0.00394146
-0.0331715 0.0028945 0.00382693
0.017199 0.0449077 0.0487278
-0.0647397 0.0065701 -0.00596964
-0.0346516 0.0028836 0.00349205
-0.0352326 0.00288606 0.00304112
-0.0356469 0.00293589 0.00266725
-0.0358971 0.00284813 0.00221485
-0.0604157 0.0137422 -0.00181809
-0.0604288 0.0189361 -0.00267244
-0.0635498 0.0186381 -0.00609091
-0.0364083 0.00290047 0.00166956
-0.00799466 0.046793 -0.00484665
-0.0367668 0.00285761 0.00125086
-0.0372591 0.0027699 0.000620221
-0.0629769 0.0327942 -0.0124574
-0.0146974 0.0476647 -0.0152983
-0.0378307 0.00277372 9.77136e-05
-0.0383112 0.00277487 -0.000237364
-0.0552189 0.00895957 0.00206757
-0.0388049 0.00277487 -0.000522415
-0.0423381 0.00271291 0.00507791
-0.0431849 0.00274673 0.00511827
-0.0443157 0.00260409 0.00489844
-0.0593408 0.0218636 -0.00323749
-0.0322112 0.0122653 0.00709496
-0.0451594 0.00273417 0.00458454
-0.0222743 0.0332225 -0.00102436
-0.0454956 0.0026018 0.00433268
-0.0472315 0.00273537 0.00333044
-0.0520463 0.0515587 -0.00984169
-0.0322352 0.011762 0.00702336
-0.063152 0.0370966 -0.0139441
-0.0368514 0.0083639 0.00473348
-0.0402991 0.0213859 0.00687101
-0.0452218 0.0532608 0.0245249
-0.048771 0.00258346 0.00336542
-0.0533448 0.00779317 0.00376542
-0.0493182 0.00270456 0.00359795
0.0195249 0.0489815 0.0544585
0.0157721 0.0455116 0.0512526
-0.0517558 0.0403162 -0.00528609
-0.0438635 0.0350437 0.00285011
-0.0348251 0.0486449 -0.0106377
-0.0661427 0.0484155 -0.0340306
-0.0498344 0.00269676 0.00367516
-0.0503306 0.0026913 0.00364854
-0.0608202 0.0299029 -0.00893169
-0.0507725 0.00273168 0.003557
-0.0509128 0.00255824 0.00339901
-0.041276 0.0138747 0.00757714
-0.0513032 0.00264416 0.00325056
-0.0516878 0.00273091 0.003067
-0.0532053 0.0099039 0.0039229
-0.0557744 0.0382483 -0.00622056
-0.0522024 0.00264576 0.00265441
-0.033782 0.00827821 0.00409032
-0.0528319 0.00269193 0.00217552
-0.0537394 0.00269257 0.0016227
-0.0102753 0.0469454 -0.0126297
-0.0345117 0.0507737 0.00397697
-0.0543125 0.00256054 0.00132066
-0.0546748 0.00268837 0.0012847
-0.02819 0.0463025 -0.0125805
-0.0554776 0.00268723 0.000878984
-0.037036 0.0243222 0.00586819
-0.0352459 0.0322862 0.0021097
-0.0388295 0.049429 -0.00440491
-0.0568596 0.00268356 0.00025428
-0.0508989 0.0083015 0.00533154
-0.0483021 0.0463088 0.0272786
-0.060334 0.0528012 -0.0122017
-0.0572059 0.00268242 0.00011204
-0.0727017 0.0523273 -0.0177257
-0.0575464 0.00268241 -8.45287e-05
-0.0578602 0.0550813 -0.00176681
-0.0578842 0.00268299 -0.000308408
-0.0592319 0.00268654 -0.0012597
-0.0266906 0.0162364 0.00953172
-0.0600922 0.00273344 -0.00190074
-0.0607639 0.00273666 -0.00244252
-0.0493915 0.0268069 0.00329584
-0.040195 0.032481 0.00542997
-0.0647723 0.0478325 -0.0222697
-0.0736906 0.0479389 -0.0400049
-0.0626564 0.0178908 -0.00499778
-0.0441688 0.0262263 0.00502175
-0.0617415 0.00265211 -0.00316087
-0.0307327 0.0483338 -0.00477241
-0.0622179 0.00276143 -0.00341667
-0.0462494 0.02539 0.00422462
-0.0394009 0.0282776 0.00481075
-0.0642991 0.0590973 -0.00271304
-0.021838 0.0313288 -0.000483813
-0.0628039 0.00274064 -0.00381276
-0.0274886 0.00768053 0.00491408
-0.0502137 0.0283324 0.00168566
-0.0632864 0.00256971 -0.00432229
-0.0567906 0.0042425 0.000727093
-0.0638164 0.00303963 -0.0282996
-0.0132378 0.0481966 -0.0123386
-0.0657061 0.00304193 -0.0295061
-0.0670658 0.00303505 -0.0299447
-0.00501947 0.00358191 -0.00486098
-0.0527793 0.00474798 0.00350494
-0.00606738 0.0035718 -0.00500411
-0.0602099 0.0264353 -0.00710708
-0.00631049 0.00357433 -0.00525994
-0.0108313 0.00344541 -0.00198107
-0.0137487 0.00342013 -0.00251073
-0.0163587 0.00338601 -0.00245876
-0.0307346 0.0297569 0.00656185
-0.0481407 0.0212428 0.00430666
-0.0195476 0.00329374 -8.52328e-05
-0.0212281 0.011724 0.00471805
-0.063386 0.00641167 -0.00466846
-0.0201985 0.00326847 0.00069368
-0.0228293 0.00332811 0.00321623
-0.0102042 0.0633593 -0.017092
-0.0532085 0.012409 0.0047871
-0.023761 0.00325536 0.00371757
-0.0796653 0.0476439 0.0101815
-0.0416211 0.0216799 0.0064926
-0.019243 0.004371 -2.4816e-05
-0.00671966 0.0464845 -0.00191661
-0.0252473 0.00327324 0.00421622
-0.0257425 0.00326462 0.00430561
-0.0261998 0.00325869 0.00430136
-0.0431931 0.0359689 0.00283298
-0.0272194 0.00319357 0.00445365
0.0233321 0.0587812 0.0538853
-0.0278227 0.00318575 0.00445175
-0.0609673 0.00686351 -0.00182865
-0.0615944 0.0142782 -0.00299899
-0.0445707 0.0357242 0.00244179
-0.028235 0.00322757 0.00448315
-0.0447341 0.0246252 0.0056191
-0.0297115 0.00320906 0.00443899
-0.0463234 0.0338407 0.00134325
-0.0301647 0.00320244 0.00446597
0.0402325 0.0460994 0.0276161
-0.0366398 0.00304349 0.00147812
-0.0378707 0.00305486 0.000247867
-0.0528044 0.044859 -0.00525641
-0.0660585 0.0479806 -0.0265919
-0.0530679 0.00384794 0.002963
-0.0393662 0.00304096 1.9528e-05
-0.0445921 0.00286654 0.00496976
-0.0147278 0.0383654 -0.0108125
-0.00831351 0.0470925 -0.00722467
-0.0746891 0.0484505 -0.0239537
-0.0455172 0.00286654 0.00443568
-0.0488086 0.00284379 0.0035746
-0.037861 0.0387336 0.00419869
-0.0657209 0.0488431 -0.0199307
-0.0193329 0.0328214 -0.0010005
-0.0467512 0.0397623 -0.0019348
-0.0511741 0.00281599 0.00347903
-0.0547028 0.0237501 -0.000434584
-0.0520829 0.00281599 0.00295438
-0.00768977 0.015559 -0.0133309
0.0182197 0.0511896 0.0527812
-0.0525216 0.00281851 0.00258564
-0.0615944 0.0028261 -0.00299899
0.0270311 0.0521023 0.0548663
-0.0637102 0.0477596 -0.0212812
-0.0637549 0.012183 -0.00436179
-0.0549318 0.00565551 0.00234879
-0.0461535 0.0317485 0.00202836
-0.0519839 0.0388278 -0.00460952
-0.0633044 0.0028261 -0.00398625
-0.0641129 0.00282104 -0.00422212
-0.0638164 0.00335188 -0.0282996
0.0270346 0.0547338 0.0556765
-0.0410978 0.00767996 0.00687175
-0.0640868 0.00335188 -0.0284557
-0.0407526 0.0513028 -0.00666987
-0.0625332 0.0109481 -0.00307913
-0.0647628 0.00335188 -0.028846
-0.0123393 0.0461673 -0.0147451
-0.0576695 0.0112194 0.00111459
-0.0181299 0.0424377 -0.0130076
-0.0653001 0.00335441 -0.0292717
-0.0737421 0.0480935 -0.0363396
-0.0618226 0.0325468 -0.0107517
0.00731328 0.049008 0.0105732
-0.0157921 0.00685827 -0.00218936
-0.0408406 0.0203933 0.00690474
-0.0357299 0.0183657 0.00708414
-0.0528538 0.0458853 0.0125552
-0.0662501 0.00335188 -0.0297047
-0.0673338 0.00334936 -0.0302149
-0.0247694 0.0300416 0.002558
-0.0103552 0.0469456 -0.00447745
-0.0677425 0.0033443 -0.03022
-0.0278022 0.00591287 0.00577225
-0.0267989 0.00383026 0.00427303
-0.00451504 0.00394599 -0.00583992
-0.00923299 0.00379677 -0.00232845
-0.0102211 0.0464193 -0.0144459
-0.0101878 0.0037719 -0.00184046
-0.0408835 0.0168906 0.00741887
-0.00975427 0.0326882 -0.00967308
-0.0388281 0.0384519 0.0033324
-0.0107576 0.00376223 -0.00176528
-0.0118364 0.00375532 -0.00209947
-0.0431808 0.00890113 0.00734346
-0.0605227 0.00581179 -0.00145649
-0.0317856 0.0229355 0.00682107
-0.0295359 0.0163896 0.00892823
-0.0200703 0.0548556 -0.00887403
-0.0138319 0.00373321 -0.0023278
-0.0143231 0.00383065 -0.00226502
-0.0162824 0.00369729 -0.0022415
-0.0579141 0.02052 -0.00122058
-0.0166277 0.0438653 -0.0150271
-0.0741583 0.0572587 -0.0110033
-0.0173013 0.00383052 -0.00184828
-0.059749 0.00841046 -0.000778817
-0.0196831 0.00374373 0.000240675
-0.0222702 0.0116258 0.00532882
-0.0208836 0.00354255 0.0015683
-0.0240416 0.00344307 0.00390198
-0.0308705 0.0172125 0.00821545
-0.0268341 0.00339333 0.0043682
-0.0357391 0.0590603 0.0115822
-0.0275988 0.00338227 0.00438856
-0.0613319 0.0102362 -0.00223162
-0.0288002 0.0033657 0.00438774
-0.07376 0.0482845 -0.0264195
-0.0306166 0.00333806 0.00449377
-0.0318202 0.00332977 0.00414526
-0.0323585 0.00332563 0.00400766
-0.0151843 0.00433876 -0.00201166
-0.0327732 0.00332148 0.00394146
-0.0482496 0.0123103 0.00600468
-0.0346368 0.00330767 0.00344285
-0.0606824 0.0153314 -0.00247246
-0.0348809 0.00330767 0.00330191
-0.0356924 0.00331181 0.0026602
-0.0361248 0.00331734 0.00217962
-0.0657223 0.0482181 -0.0227797
-0.0397137 0.00679143 0.00409129
-0.0364501 0.00332148 0.00181859
-0.0366675 0.00332425 0.00157759
-0.0368854 0.00332701 0.00133636
-0.0607797 0.0194395 -0.00329844
-0.0376778 0.00333392 0.000590162
0.046358 0.0466887 0.0222038
-0.0603051 0.00828748 -0.00121538
-0.0385259 0.0033353 4.2798e-05
-0.0649057 0.00615282 -0.0286976
-0.0438173 0.00326266 0.00559028
-0.0366762 0.0100344 0.00653782
-0.0452048 0.00330176 0.00500094
0.028618 0.0512861 0.0547432
-0.0378301 0.00918778 0.00425502
0.0151902 0.0462087 0.0527411
0.0358042 0.0493565 0.0317567
-0.00592203 0.0465518 -0.00168703
-0.0453295 0.00312805 0.00477498
-0.0266935 0.00862642 0.0039875
-0.0464422 0.00313358 0.00390161
0.0312172 0.0452718 0.0457361
-0.0360998 0.00482329 0.00357969
-0.0467993 0.0032656 0.00375316
-0.0391685 0.0383378 0.00304925
-0.0558855 0.0262514 -0.00299388
-0.0691491 0.0498601 -0.00285734
-0.0728332 0.0491902 -0.0203034
-0.0122413 0.00406634 -0.00198685
-0.0483209 0.00324543 0.00368298
-0.0463429 0.00922224 0.00655703
-0.0492701 0.00326688 0.00403948
0.029849 0.0463851 0.0464472
-0.0372128 0.00388435 0.00149372
-0.049705 0.00325804 0.0041348
-0.0672919 0.0485548 -0.0182973
-0.0513213 0.0032036 0.003625
-0.0518072 0.00316091 0.003306
0.0453165 0.0461953 0.0196972
-0.0568439 0.0255319 -0.00331624
-0.0605982 0.0113445 -0.00150006
-0.0521799 0.0032492 0.00305232
0.0422115 0.0462856 0.0281237
-0.0527314 0.00323326 0.00267233
-0.0529763 0.00308108 0.00232308
-0.0538859 0.00308108 0.00179795
0.0484471 0.0460669 0.027971
-0.0132 0.0491348 -0.0101613
-0.0217264 0.0327769 -0.000765801
0.0478213 0.0459472 0.024492
-0.0546668 0.0032512 0.00153955
-0.0259871 0.0482365 -0.00923013
-0.054809 0.00307831 0.00138042
-0.05527 0.00320797 0.00117201
-0.0422713 0.025305 0.00627119
-0.0558734 0.00316475 0.000804387
-0.046193 0.0154073 0.0056236
-0.0562919 0.00320797 0.00058204
-0.0447104 0.0348775 0.00247659
-0.0513414 0.0353924 -0.00279523
-0.0568655 0.00307555 0.000308609
-0.0417612 0.0121374 0.00741251
-0.0572174 0.00320366 0.000220905
-0.0679638 0.0488709 -0.0454743
-0.0582875 0.0032287 -0.000350763
-0.0427673 0.0348167 0.0033098
-0.0587998 0.00320509 -0.000750448
-0.0593622 0.00307555 -0.00113289
-0.059705 0.00320579 -0.00130194
0.00935982 0.0468618 0.0120434
-0.0328182 0.0177506 0.00720636
-0.0612354 0.00325704 -0.00248376
-0.0617269 0.00321374 -0.00278684
-0.0621451 0.00325704 -0.00300904
-0.0357077 0.0090728 0.00513395
-0.0622922 0.00308384 -0.00317093
0.0317902 0.0464705 0.0241853
-0.0637715 0.0367823 -0.0141864
-0.0632117 0.00321086 -0.00352859
-0.0641235 0.00320947 -0.00399727
-0.0643507 0.00307831 -0.00412844
-0.0643572 0.00382025 -0.0286119
-0.0615643 0.0177641 -0.00344351
-0.067243 0.00376629 -0.030201
-0.011005 0.00407534 -0.00161944
0.0402479 0.0461293 0.0218515
-0.0261983 0.0450185 -0.0125852
-0.0689479 0.0496062 -0.000547262
-0.0113253 0.00407234 -0.00168894
-0.033847 0.0502162 0.00305204
-0.0117836 0.004229 -0.00183804
-0.0553588 0.0262828 -0.00217013
-0.012645 0.00405735 -0.00187352
-0.0639969 0.0189553 -0.00669546
-0.047126 0.00647691 0.00604716
-0.0181605 0.00395239 -0.00101641
-0.0452782 0.0312196 0.00266837
-0.0209219 0.00384143 0.00166165
-0.0214118 0.00382344 0.00207163
-0.0647561 0.0576969 -0.00370816
-0.0227918 0.00377546 0.00312241
-0.0252112 0.00385906 0.0041216
-0.0640768 0.0107911 -0.0102057
-0.0508177 0.0193423 0.00483951
-0.0627149 0.00824516 -0.00399232
-0.0283252 0.00380527 0.00431563
-0.029223 0.00379124 0.00431683
-0.0113365 0.032796 -0.00943189
-0.0146994 0.0154928 -0.00271318
-0.0298185 0.0037819 0.00431943
0.0138294 0.049077 0.0509393
0.0268368 0.0461671 0.0460938
-0.0473997 0.0349076 0.000808487
-0.0576537 0.0413915 -0.0104233
-0.0317475 0.00371127 0.00407179
-0.0537968 0.0328722 -0.00592562
-0.0167441 0.0113184 -0.00118015
-0.0631008 0.0532398 -0.0149538
-0.0322045 0.00375391 0.00398112
-0.0332021 0.0036968 0.0037708
-0.0342706 0.00373042 0.00365428
-0.0488228 0.0252124 0.003653
-0.0347574 0.00377314 0.00352717
-0.0525977 0.0472613 0.0336031
-0.0660236 0.0211607 -0.00994407
-0.0522077 0.0208604 0.00268984
-0.0357665 0.0036845 0.00275215
-0.0373489 0.0036988 0.00129967
-0.0496815 0.0274093 0.00278202
-0.0407519 0.0260594 0.00603219
-0.0377396 0.00379523 0.000997164
-0.0386773 0.016776 0.00749944
-0.0378675 0.00361053 0.000769319
-0.0382622 0.00374905 0.000656919
0.0371743 0.0471517 0.0317394
-0.0443361 0.00338862 0.00557947
-0.0468993 0.00634586 0.00617808
-0.0507601 0.00333364 0.00398751
-0.0197171 0.0368626 -0.00457093
-0.0557306 0.00333764 0.000963835
-0.0600432 0.00333764 -0.00152603
-0.0407304 0.0467707 0.0246815
-0.0715133 0.0492177 -0.0193489
-0.0638164 0.00397638 -0.0282996
-0.0651685 0.00397638 -0.0290802
-0.00983899 0.0464823 -0.0144563
-0.0137833 0.0410787 -0.0117683
-0.0670636 0.00397338 -0.0300589
-0.0183497 0.0397028 -0.00886215
-0.0681444 0.00397338 -0.0306829
-0.0220088 0.0151795 0.00507562
-0.0104069 0.00439859 -0.00138959
-0.0411491 0.0453641 -0.00493587
0.0401373 0.0464663 0.0284849
-0.058092 0.0117651 0.000581967
-0.0112301 0.00438889 -0.00151846
-0.0281928 0.011645 0.00520032
-0.00227737 0.0464975 0.0610967
-0.0534957 0.0282997 -0.00109445
-0.0148932 0.00882991 -0.00305601
-0.00949111 0.0627964 -0.0161029
-0.0142184 0.00435008 -0.00185812
-0.0222554 0.00646417 0.00297025
-0.0147122 0.00434361 -0.00191231
-0.0573266 0.0117438 0.00125479
-0.0162665 0.00431774 -0.0018859
-0.0247768 0.00826607 0.00379505
-0.0168349 0.0043048 -0.00175218
0.0205212 0.0564792 0.0539945
-0.0622798 0.0532581 -0.0144029
-0.0362883 0.0288041 0.00520288
-0.0568979 0.0106883 0.00170445
-0.0177335 0.00427569 -0.00123181
0.0429239 0.0460452 0.0304402
-0.0511098 0.0382321 -0.00346977
-0.0582599 0.0468728 -0.00941651
-0.0187227 0.00439274 -0.000474994
-0.0427006 0.0465229 0.0244793
-0.0203526 0.00432073 0.00106662
-0.0208644 0.004299 0.00152162
-0.035755 0.00881432 0.00481799
-0.0548431 0.0101929 0.00260206
-0.0231791 0.00420849 0.00330297
-0.0714033 0.0548856 -0.00912403
0.0301445 0.0470573 0.026988
-0.0448809 0.00634027 0.00745885
-0.0318799 0.00390375 0.00387985
0.0349102 0.0473975 0.038111
-0.0520829 0.0206542 0.00295438
-0.0585626 0.0440747 -0.0164907
-0.0356707 0.00386494 0.00307688
-0.0742803 0.0483238 -0.0314542
-0.0365339 0.00387788 0.00211665
-0.0418018 0.00369999 0.00542606
-0.0492561 0.015361 0.00605868
-0.0428111 0.00375782 0.00595957
-0.0407442 0.0330666 0.00493967
-0.0436909 0.00383095 0.00599045
-0.0441686 0.00377851 0.00599372
-0.00588736 0.0658709 -0.0147151
-0.0448039 0.00374978 0.00570199
0.0372019 0.0458366 0.0222868
-0.0790452 0.047979 -2.60659e-05
-0.0658277 0.0487843 -0.0206851
-0.024369 0.0242362 0.00394386
-0.0457377 0.00382301 0.00507815
-0.015645 0.0529262 -0.0129587
-0.0312396 0.0136981 0.00719402
-0.019764 0.0428628 -0.0142975
-0.0458554 0.00365148 0.00481778
-0.0473218 0.00365633 0.00379794
-0.0478319 0.00364825 0.00379206
-0.0227948 0.0318277 -0.000516618
-0.0603141 0.0399221 -0.0142687
-0.0442335 0.0072788 0.00742848
-0.0432422 0.0103815 0.00727335
-0.0483116 0.00372685 0.00386158
-0.0487877 0.0153749 0.00621365
-0.0475668 0.0228247 0.00440701
-0.0491367 0.00370258 0.00423198
-0.0502371 0.00368155 0.00432797
-0.0525641 0.0163499 0.00452405
-0.0137413 0.0213171 -0.00291064
-0.0178458 0.0312981 -0.0017585
-0.0550282 0.0282149 -0.00284531
-0.034046 0.0337405 0.00147458
-0.0507437 0.00369453 0.00418943
-0.0513982 0.003676 0.00385004
-0.0523034 0.003676 0.00332742
-0.0361279 0.0128414 0.00748949
-0.0622273 0.0217351 -0.00682852
-0.0697738 0.0487114 -0.0263121
-0.0539581 0.00359003 0.00233358
-0.054779 0.00367931 0.00178268
-0.0551932 0.0037232 0.00153393
-0.0567758 0.00372407 0.00059133
-0.0131667 0.00828407 -0.00379126
-0.0576904 0.00372153 0.000149908
-0.0442012 0.0528206 -0.00796814
0.0262111 0.0522621 0.0188281
-0.0581153 0.00376197 1.04234e-05
-0.05841 0.00367708 -0.000236701
-0.067912 0.0480079 -0.0497168
0.000252868 0.0484246 -0.00732106
-0.0588275 0.00371985 -0.000448903
-0.0422483 0.0103593 0.00779524
-0.0257008 0.0561272 -0.0172632
-0.0473101 0.0493047 -0.0102249
-0.00275183 0.0467346 -0.0100181
-0.0367049 0.0367722 0.00663671
0.0234727 0.0565232 0.0535046
-0.0593154 0.00367708 -0.00075947
-0.0596896 0.00376536 -0.00101398
-0.0605014 0.00372904 -0.00173285
0.018799 0.0452987 0.0502866
-0.0478032 0.00787795 0.00629126
-0.0607998 0.00377446 -0.00196285
-0.0313012 0.0236847 0.00652335
-0.0180197 0.0461673 -0.0180247
-0.0612837 0.00373413 -0.00235773
-0.061771 0.00369256 -0.00271604
-0.0621889 0.00373574 -0.00293809
-0.0634419 0.00360297 -0.00360378
-0.0641288 0.00373078 -0.00388485
-0.063821 0.00428539 -0.0281868
-0.0640913 0.00428539 -0.0283428
-0.0654389 0.00428863 -0.0292364
-0.0234622 0.0352584 -0.00257624
-0.0658445 0.00428863 -0.0294705
-0.0666557 0.00428863 -0.0299389
-0.0202161 0.0158827 0.00230013
-0.0677382 0.00428701 -0.0305061
-0.00434306 0.0466712 -0.0107058
0.0487311 0.0465381 0.0216686
-0.031735 0.0453977 -0.0104703
-0.0681444 0.00428539 -0.0306829
-0.012751 0.00484484 -0.00164602
-0.0388097 0.0177534 0.00781748
-0.0143221 0.00481625 -0.00162933
-0.0127093 0.0180855 -0.00479739
-0.037841 0.0467166 0.0248313
-0.0140494 0.052992 -0.0133076
-0.0168243 0.00481993 -0.00151516
-0.0182785 0.00471742 -0.000738122
-0.0626616 0.0281096 -0.0113516
-0.0519839 0.0385499 -0.00460952
-0.0562111 0.0413639 -0.00808929
-0.0226793 0.00556752 0.00284096
-0.0506696 0.0127242 0.0056756
-0.0243324 0.00431983 0.00384956
-0.0576322 0.0196313 -0.000422749
-0.0737406 0.0483305 -0.0256578
-0.0246957 0.00430942 0.00398621
-0.0792325 0.0476899 0.013676
-0.0383867 0.0338774 0.00578118
-0.025184 0.00429901 0.00405068
-0.0263167 0.00427472 0.00420502
-0.0561597 0.0206727 0.000485143
0.026687 0.0532949 0.0555529
-0.0268641 0.00435831 0.00431238
-0.0398036 0.00838096 0.00496312
-0.0272795 0.0042539 0.00434197
-0.0327942 0.0213798 0.00727798
-0.0283422 0.00423482 0.00436348
-0.059985 0.018779 -0.00224301
0.0235232 0.0482213 0.0531873
-0.0287664 0.00422961 0.0042918
0.0223052 0.0461929 0.0532347
-0.0522039 0.0181845 0.00455878
-0.0356972 0.026864 0.00557303
-0.029835 0.0042088 0.00436763
-0.0302718 0.00420186 0.00434641
-0.0600789 0.0112907 -0.00108481
-0.0307234 0.00419319 0.00437433
-0.0317964 0.00432558 0.00407242
-0.0341158 0.00994636 0.00547573
-0.0368892 0.00470914 0.00237338
-0.0324657 0.00417757 0.00388804
-0.0327018 0.00435809 0.00402116
-0.0547861 0.0058272 0.00247139
-0.0577425 0.0338921 -0.00635613
-0.0330491 0.00416716 0.00389763
-0.0250219 0.0266438 0.00322051
-0.0087482 0.0622582 -0.0154815
0.0305288 0.0466762 0.0274408
-0.0337521 0.00415675 0.00383818
-0.034482 0.00414287 0.00387867
-0.0599574 0.0549732 -0.0120997
-0.0718727 0.0484911 -0.039706
-0.0353518 0.00422934 0.0036074
-0.0222625 0.0372829 -0.00430845
-0.0358498 0.0041394 0.00320441
-0.0543911 0.0132169 0.00375792
-0.0627409 0.0122928 -0.00354544
-0.0367381 0.012833 0.00722379
-0.0477957 0.00641439 0.00516014
-0.0463537 0.00581697 0.00660856
-0.036294 0.00428519 0.00277472
-0.0491714 0.0257361 0.00348063
-0.0366315 0.00428877 0.0024644
-0.0262916 0.0218312 0.00964663
-0.0368476 0.00429236 0.00222417
-0.0515843 0.0317444 -0.000337325
-0.0376929 0.00434598 0.00152445
-0.0122083 0.0314537 -0.00993523
-0.0379743 0.00416369 0.00116956
-0.0384637 0.00416369 0.000886986
-0.0292607 0.0183661 0.00775916
-0.0452373 0.0177404 0.00615611
-0.0497534 0.0228146 0.00320231
-0.038714 0.00433988 0.00112739
-0.0498043 0.0767774 -0.0331424
-0.0768281 0.0484505 -0.0251887
-0.045678 0.0188084 0.00581502
-0.0445418 0.00390693 0.0059226
-0.0478615 0.00390867 0.00394821
0.0318763 0.0465433 0.0245237
-0.0312768 0.00980707 0.00515184
-0.050092 0.00385488 0.00445022
-0.0511455 0.00384794 0.00407289
-0.0372874 0.0277366 0.00578076
-0.0521633 0.00384794 0.0034853
-0.0546511 0.00384794 0.00204898
-0.0548797 0.0483239 0.00973047
-0.0562094 0.00385488 0.000918355
-0.0784874 0.0475608 0.0143833
-0.0491665 0.0177712 0.00556187
-0.0229687 0.00829425 0.00434825
-0.0571272 0.00385141 0.00050389
-0.0372412 0.0247436 0.00594218
-0.0591743 0.00384794 -0.00056251
-0.0641784 0.00480781 -0.0284701
-0.0422924 0.0512042 -0.00686609
-0.051631 0.00436236 0.00402352
0.00716757 0.0473789 0.012683
-0.0654389 0.004757 -0.0292364
0.0463701 0.0454088 0.0181115
-0.0774596 0.0480258 -0.0105422
-0.0488136 0.0367464 -0.000758408
-0.0108147 0.0466407 0.00368655
-0.0658445 0.004757 -0.0294705
-0.0416539 0.00453181 0.00481863
-0.0453071 0.0213075 0.00527866
0.0353028 0.0453155 0.0177263
-0.0672417 0.00480905 -0.0302772
-0.0496871 0.0346187 -0.000974037
-0.0325833 0.0543863 -0.0190429
-0.0361543 0.00794385 0.00522256
-0.0271616 0.020784 0.00960618
-0.0676929 0.00480781 -0.0304992
-0.0678726 0.00460088 -0.0306415
0.0347617 0.0456021 0.0193769
-0.0180818 0.00644507 -0.00120193
-0.0491778 0.0208508 0.00422746
-0.0124543 0.00500576 -0.00153246
-0.038373 0.0311637 0.00573133
0.017054 0.0457125 0.0197765
-0.0577873 0.0229028 -0.0016862
-0.0145211 0.0049687 -0.00157102
-0.0167089 0.0210735 -0.00283414
-0.080265 0.0477051 -0.00419443
-0.0662282 0.0488572 -0.0492642
-0.0645485 0.0114886 -0.0105935
-0.0208836 0.00490092 0.0015683
-0.0624939 0.026038 -0.00779073
-0.0214118 0.00487428 0.00207163
-0.00575228 0.0466082 -0.0125587
-0.0218424 0.00485702 0.00234264
0.0287605 0.0488574 0.0558647
0.0300953 0.0456231 0.0440491
-0.0226793 0.00482458 0.00284096
-0.0514322 0.0282502 0.000327813
-0.0583067 0.00735025 0.000342561
-0.0238212 0.00472833 0.00360581
-0.016755 0.0322481 -0.00193698
-0.0242773 0.00476539 0.00370813
-0.0301647 0.00448517 0.00446597
-0.041857 0.00438297 0.0051055
-0.0604938 0.040506 -0.0154117
-0.042176 0.00436965 0.00532543
-0.049825 0.0188301 0.00506626
-0.0433789 0.00432562 0.00595885
-0.050145 0.0768601 -0.0337625
-0.0472189 0.0487771 -0.0102107
-0.0148286 0.00655981 -0.00203723
-0.0517041 0.0197897 0.00409685
-0.04418 0.00430755 0.00604483
-0.0446408 0.00434491 0.00598091
-0.0447938 0.00416838 0.00589256
-0.0452243 0.00427128 0.00573636
-0.0456711 0.0043385 0.00557848
-0.0448744 0.0462275 -0.00887643
-0.0459516 0.00429887 0.00528184
-0.0369794 0.0352096 0.00566994
-0.079254 0.0479356 -0.0041881
-0.0628372 0.0132459 -0.0039186
-0.0240785 0.00930379 0.00399615
-0.0462468 0.00434491 0.00505366
-0.0370077 0.0344935 0.00576907
0.00612619 0.047561 -0.00662441
-0.0552698 0.00630603 0.00215364
-0.0621126 0.0206355 -0.00606947
-0.0376796 0.00631456 0.00370686
-0.0467232 0.00430454 0.00466313
-0.0524889 0.0449145 0.0158836
-0.0537182 0.0068156 0.00325151
-0.0160359 0.0444504 -0.0156092
-0.0481974 0.00433726 0.0041584
-0.0616322 0.0220186 -0.00602305
-0.0490733 0.00427025 0.00434554
0.0452643 0.0456858 0.0164339
-0.0493382 0.00426261 0.00442357
-0.0622795 0.0497216 -0.0114774
-0.0497247 0.00425305 0.00448904
0.0266851 0.04868 0.0227968
-0.0502141 0.0042454 0.00443744
-0.0594746 0.0533683 -0.0117056
-0.0294307 0.00978682 0.00448563
-0.0585186 0.0238567 -0.00249333
-0.03239 0.0507533 0.00410501
-0.05485 0.0192905 0.00170322
-0.0573067 0.035869 -0.00535011
-0.051889 0.00418981 0.00383614
-0.0177903 0.0539791 -0.0102712
-0.052647 0.00423202 0.00343699
-0.052865 0.00423387 0.00325338
0.0229765 0.0467342 0.0541419
-0.0462689 0.0363313 0.00173075
-0.0532114 0.00423202 0.00311114
-0.0693147 0.0487141 -0.0422705
-0.0255631 0.00838367 0.0038318
-0.0537757 0.00416679 0.00278533
-0.054152 0.00427539 0.00256803
-0.0593144 0.0188855 -0.00168265
-0.0544459 0.00423387 0.0023406
-0.0418151 0.0322377 0.00437915
-0.0547813 0.0042348 0.0021181
-0.0267266 0.022719 0.0065087
-0.0510739 0.0346783 -0.00200565
0.0247236 0.0574524 0.0533031
-0.0552231 0.00423769 0.00177643
-0.0619233 0.0487306 -0.0132348
-0.057249 0.00424059 0.00052018
-0.0126139 0.0282341 -0.00901468
-0.0584958 0.00410909 -0.000170788
-0.0510006 0.0308804 0.000807926
-0.0588426 0.00423677 -0.000284419
-0.0451366 0.0528936 0.0246317
-0.0622819 0.00585108 -0.00333819
0.0281274 0.0539235 0.0556147
-0.00920722 0.0576824 -0.0158813
-0.0597374 0.00424059 -0.000916494
-0.0603347 0.00422041 -0.00144033
-0.0632147 0.00425878 -0.00347262
-0.0421995 0.0678627 -0.0187636
-0.0497006 0.0117331 0.00577317
-0.0637827 0.00425878 -0.00380053
-0.0642027 0.00429995 -0.003966
-0.0192819 0.0241583 6.8184e-05
-0.0462209 0.0343632 0.00148903
-0.0138906 0.00529237 -0.00143794
-0.0427237 0.00731798 0.00760731
-0.0142476 0.00528448 -0.00141313
-0.0147403 0.0052766 -0.00146669
-0.010213 0.0466553 -0.0140371
-0.0546961 0.0370031 -0.00559804
-0.0153478 0.00527069 -0.00164415
-0.0158178 0.00526478 -0.00174231
-0.0178522 0.00535321 -0.000953872
-0.0432116 0.0136932 0.00692148
-0.0183571 0.00517415 -0.000552604
-0.0188401 0.00530647 -0.000196351
-0.0706903 0.0486573 -0.0039204
-0.027415 0.00707684 0.00553389
-0.065687 0.049476 -0.0462383
-0.0198961 0.00509927 0.000752802
-0.072654 0.0474359 0.020407
-0.0204296 0.00522322 0.00125307
-0.0235279 0.0049377 0.00339029
0.0317508 0.0458919 0.0212181
-0.0277374 0.00480766 0.00477044
-0.0287777 0.00478796 0.00474715
-0.0594725 0.0466691 -0.015053
-0.0403084 0.00624229 0.00374794
-0.0118016 0.0176264 -0.00600539
-0.0292167 0.00478007 0.00472463
-0.0270295 0.0276386 0.00448632
-0.0393106 0.0109123 0.00651793
0.036275 0.0473683 0.0324904
-0.029671 0.00477022 0.00475102
-0.0302553 0.0049015 0.00473125
-0.0612712 0.0264467 -0.00777759
-0.0664182 0.048451 -0.0343051
-0.0408407 0.0123191 0.00742431
-0.0521497 0.036789 -0.00435884
-0.0687127 0.0492193 -0.013806
-0.031844 0.00488735 0.00421816
-0.0494006 0.022957 0.00334829
-0.063436 0.00478773 -0.00371585
0.0201728 0.0468844 0.0212886
-0.0322673 0.00488023 0.00417583
-0.0543826 0.00980994 0.00278136
-0.0327127 0.00487008 0.0042073
-0.0285688 0.0184049 0.00787
-0.0337363 0.00484776 0.00425145
-0.0349322 0.00467762 0.00442698
-0.0357487 0.00486249 0.00399408
-0.0358718 0.00468156 0.00376906
-0.0758579 0.0477817 0.0187497
-0.0363524 0.00478671 0.00314517
-0.0528362 0.0473172 0.03335
-0.0625957 0.00982897 -0.00334616
-0.0372685 0.00484776 0.00221215
-0.0716017 0.0469295 0.0210145
0.0327237 0.0455907 0.0292277
-0.0377152 0.00471308 0.00178104
-0.0698014 0.0567857 -0.00831466
-0.0382362 0.00484868 0.00162457
-0.0326334 0.032135 0.00304065
-0.038802 0.0048365 0.00164432
-0.0147403 0.0205639 -0.00262137
-0.0597842 0.0182686 -0.00178066
0.0263683 0.052377 0.0545702
-0.0392377 0.0046855 0.00171027
-0.0396856 0.00521018 0.00237548
-0.060305 0.0217212 -0.00427528
-0.0138121 0.0543527 -0.0121314
-0.0238203 0.00552341 0.00333692
-0.0707188 0.0567544 -0.00907523
-0.0404199 0.00461457 0.00310623
-0.0323132 0.0076843 0.00413774
-0.058913 0.0264239 -0.00630063
-0.0680218 0.0484112 -0.0199889
-0.0432282 0.00446482 0.00587269
-0.0535648 0.00435842 0.00302253
-0.0323112 0.0258355 0.00565153
-0.0493222 0.0389068 -0.00237997
-0.0638257 0.00521749 -0.0280741
-0.0651703 0.00537941 -0.0290236
-0.0626398 0.0322507 -0.0117432
-0.0654389 0.0053815 -0.0292364
-0.00526279 0.0469931 -0.00511694
-0.0671966 0.0053815 -0.0302512
-0.059833 0.0267661 -0.00717821
-0.068143 0.0053815 -0.0307976
-0.00904642 0.0647304 -0.0153843
-0.01473 0.00575061 -0.00148958
-0.0152818 0.00579779 -0.00166382
-0.0577217 0.0482523 0.00162329
-0.0544951 0.00941998 0.00271636
-0.0155453 0.00557938 -0.00158501
-0.0387274 0.0102942 0.00552676
-0.0387344 0.0188711 0.00754346
-0.015838 0.00573448 -0.00169628
-0.0162113 0.00572381 -0.00162309
-0.0491965 0.00571437 0.00433217
-0.0165634 0.00571522 -0.00159546
-0.0598553 0.0239624 -0.00384243
-0.0183178 0.00548751 -0.000645366
-0.0209219 0.00534969 0.00166165
-0.0123333 0.046336 -0.000307895
-0.0491714 0.0252068 0.00348063
-0.0218993 0.00529958 0.00248302
-0.0222712 0.00528705 0.00261472
-0.0637731 0.0187965 -0.00639304
-0.023894 0.00522023 0.00352528
-0.0253105 0.00517429 0.00397768
-0.0187202 0.041063 -0.0105772
0.023706 0.0477909 0.0537548
-0.0612915 0.00975887 -0.00224678
-0.0256707 0.0053073 0.00411608
-0.0267794 0.00526423 0.00463067
-0.0273467 0.0052408 0.00493829
-0.0287077 0.00524732 0.00524944
-0.0573992 0.00748373 0.00080877
-0.0433481 0.0388903 0.00112693
-0.0433525 0.0497468 -0.00793999
-0.060783 0.032798 -0.0094587
-0.0377556 0.00498846 0.0019309
-0.0407839 0.00486943 0.00347337
-0.0298325 0.0157991 0.00867997
0.0291728 0.0465192 0.0320273
-0.0537904 0.00461886 0.00289231
-0.0401976 0.0497413 -0.00931319
0.0212292 0.0451932 0.0208014
-0.0411957 0.0048402 0.00404394
-0.0428497 0.0127753 0.00704386
-0.0237792 0.0146471 0.00636287
-0.0415307 0.00482349 0.00431243
-0.0173638 0.043744 -0.0149902
-0.0437948 0.00484552 0.00606517
0.0267344 0.0516281 0.0531362
-0.0441819 0.00478643 0.00624582
-0.0452374 0.00467942 0.00615605
-0.0611787 0.035242 -0.01038
-0.0458194 0.00467733 0.00587776
-0.0413022 0.0183142 0.00715787
-0.0486792 0.00480809 0.00425555
-0.0467609 0.00486313 0.0050648
-0.030685 0.0237646 0.00641723
-0.0501861 0.0272403 0.00202873
-0.0468792 0.00469403 0.00480403
-0.0108832 0.0441686 -0.015521
0.0171385 0.0567736 0.0538313
-0.0387215 0.00931024 0.00397129
-0.0472332 0.00482417 0.00465741
-0.0478059 0.00482417 0.00432671
0.0250123 0.0455495 0.0482736
-0.0495839 0.00478343 0.00439717
-0.0507425 0.00471558 0.00438259
-0.0472356 0.0385153 -0.0007711
-0.0169547 0.00585869 -0.00147495
-0.051171 0.00475553 0.0042314
-0.046216 0.0376883 0.000799056
-0.048677 0.00697544 0.00561357
-0.0331414 0.0498581 0.00419076
-0.0517521 0.00475121 0.00401137
-0.0446458 0.0273585 0.00401502
-0.0523243 0.00474908 0.00373875
-0.0288345 0.0181723 0.00806296
0.0269199 0.0524192 0.055033
-0.0532341 0.00474687 0.00327122
-0.0498874 0.0400408 -0.00374553
-0.0622231 0.0172971 -0.00428575
-0.0669528 0.0484822 -0.0357685
-0.0536498 0.00478955 0.00305042
-0.0497724 0.021651 0.00355701
-0.0547985 0.00475117 0.00225254
-0.0137342 0.0482894 -0.0127503
-0.055356 0.00475338 0.00187292
-0.0396851 0.0212752 0.00708116
-0.0556527 0.00479822 0.00166315
-0.0572663 0.00475657 0.000683432
-0.0597677 0.0201816 -0.00294507
-0.0578283 0.00462721 0.000330066
-0.0582393 0.00472981 0.000138966
-0.0217306 0.0466193 -0.0156639
-0.0600789 0.00476196 -0.00108481
-0.0608459 0.00477479 -0.001874
-0.0612876 0.00478129 -0.00230229
-0.0618443 0.00478773 -0.00279688
-0.041864 0.00589095 0.00458187
-0.0621451 0.00474544 -0.00300904
0.0370484 0.0492524 0.0299347
-0.0348163 0.0117272 0.00803503
-0.0627529 0.00478847 -0.00334064
-0.00380746 0.0278449 -0.0117822
-0.0593067 0.00788151 -0.000408009
-0.0632117 0.00478564 -0.00352859
-0.0637771 0.00478779 -0.00391277
-0.0645706 0.00478994 -0.00442858
0.0047092 0.0469231 -0.00767343
-0.0205066 0.00566899 0.00143954
-0.041672 0.0362414 0.00303761
0.0235324 0.0494498 0.0526153
-0.0650551 0.0234595 -0.0100777
-0.0207719 0.00580473 0.00169056
-0.0215262 0.00561164 0.00235204
-0.0597979 0.0177845 -0.00161535
-0.0528646 0.0288993 -0.000807117
-0.0533271 0.0223878 0.00131227
-0.0206484 0.0322646 -0.00060531
-0.0576583 0.0474628 0.00100557
-0.0252744 0.00547047 0.00388303
-0.0124599 0.0165348 -0.0053462
-0.0352109 0.0207856 0.00674874
-0.0264231 0.00542194 0.00449002
-0.0605227 0.0109088 -0.00145649
-0.0303457 0.00531606 0.00499652
-0.0404956 0.00597795 0.00340889
-0.0312489 0.00531018 0.00462909
-0.0605118 0.0450922 -0.0190016
-0.0327127 0.005294 0.00420733
-0.0337716 0.00543972 0.00467368
-0.057311 0.0317069 -0.00530641
-0.0181843 0.0474687 -0.0166186
-0.0608417 0.0132911 -0.00192936
-0.0343419 0.00523444 0.00482553
-0.0578576 0.0406943 -0.00961724
-0.038379 0.0368886 0.00474641
-0.0347585 0.00540007 0.00510465
-0.0362567 0.00535817 0.00412419
-0.0255631 0.0293905 0.0038318
0.00728274 0.0463923 0.00922764
-0.0582033 0.0316139 -0.00589089
-0.0262812 0.00834307 0.00411003
-0.0472496 0.0152421 0.00603358
-0.0220858 0.0148622 0.00526208
-0.0368409 0.00538082 0.00320957
-0.0471736 0.0373985 0.000303888
-0.0736663 0.0481312 -0.0136637
-0.0374585 0.00525871 0.0023911
-0.0468792 0.0212366 0.00480403
-0.0410963 0.00526782 0.00363945
-0.0362741 0.00895744 0.0051534
-0.0603051 0.00789576 -0.00121538
-0.0414568 0.00524517 0.00400871
-0.0504957 0.0160056 0.00537184
0.0155971 0.0469174 0.0210139
-0.0444034 0.00494989 0.00646437
-0.0578026 0.0401931 -0.00883498
-0.0456782 0.00492342 0.00642117
-0.0560333 0.00488372 0.00148191
-0.0622922 0.00492342 -0.00317093
-0.0343613 0.032135 0.00204304
-0.0785471 0.047599 -0.00735954
-0.0651721 0.00584546 -0.0289669
-0.0362841 0.00639867 0.00566721
-0.0662501 0.00584987 -0.0297047
-0.0706977 0.0485741 -0.0292126
-0.0359663 0.0117285 0.00787145
-0.0733376 0.0486565 -0.00983665
-0.0666557 0.00584987 -0.0299389
0.0201902 0.0467691 0.0534955
-0.0676022 0.00584987 -0.0304854
-0.053915 0.0158256 0.00380187
-0.067871 0.00585428 -0.030756
-0.0681416 0.00585428 -0.0309123
-0.0168149 0.00634451 -0.00179838
-0.0171857 0.00633265 -0.00172383
-0.0210752 0.00593441 0.00203505
-0.0369753 0.0452309 -0.0118792
-0.0237834 0.00582288 0.00324276
-0.0249127 0.00577641 0.00374545
-0.0253285 0.00590126 0.004025
-0.0247432 0.0473726 -0.0109369
-0.0246708 0.00617668 0.0036542
-0.0754278 0.0478586 -0.0345416
-0.0257425 0.00573458 0.00430561
0.019738 0.0463172 0.0208643
-0.0267604 0.00582758 0.00498807
-0.0647819 0.0293931 -0.0140191
-0.027168 0.00580608 0.00527233
-0.0478187 0.0193416 0.00483895
-0.0669725 0.0485288 -0.0214615
-0.0282712 0.00571469 0.00569392
-0.0288201 0.00574872 0.00570417
-0.0452391 0.0508695 -0.00845189
-0.0300104 0.00559517 0.00530563
-0.0303597 0.00568642 0.00518089
0.0186618 0.0478784 0.0207048
-0.0534146 0.00991289 0.00368662
-0.0659018 0.023679 -0.0112979
-0.0488836 0.0423103 -0.00420521
-0.0307196 0.00577612 0.00508861
-0.0316702 0.00572739 0.00457831
-0.0511897 0.0388677 -0.00380454
-0.0562213 0.0117278 0.00206621
-0.032736 0.00571427 0.00428047
-0.0332491 0.0056916 0.00453273
-0.0417673 0.0218646 0.00636972
-0.0388053 0.00551617 0.00219085
-0.0462005 0.0262438 0.00398345
-0.0458517 0.00818819 0.00663859
-0.0591743 0.0128576 -0.00056251
-0.0428065 0.0053024 0.00519241
-0.0431809 0.00527451 0.00566903
-0.044289 0.00529427 0.00672287
-0.0332662 0.0296293 0.00504247
-0.0451456 0.00534522 0.00711355
-0.0656483 0.0147107 -0.00684063
-0.048725 0.012817 0.0058745
-0.045381 0.00517692 0.00682369
-0.0467374 0.00535147 0.0056249
-0.0469615 0.00520481 0.00521841
-0.0612407 0.0168018 -0.002968
0.0447315 0.0459154 0.0191285
-0.0472592 0.00538218 0.00500801
-0.0227543 0.00630046 0.00302859
-0.0476897 0.00538861 0.00460552
-0.0486649 0.00533906 0.00417717
-0.0542605 0.00578383 0.00277487
-0.0491871 0.00532238 0.00427985
-0.0657637 0.0489388 -0.0492848
-0.0498473 0.00516763 0.00447603
-0.0332687 0.0261783 0.00550288
-0.0457526 0.0508593 -0.00871946
0.0338863 0.0457372 0.0195643
-0.0502141 0.00529141 0.00443744
-0.0697336 0.0498218 -0.00427254
-0.0511838 0.00527351 0.00431062
-0.0517604 0.00526997 0.0040643
-0.0489412 0.0353624 -0.000774315
-0.0523243 0.00526997 0.00373875
-0.0453423 0.00925754 0.00664397
-0.052791 0.00526521 0.00358478
-0.0347658 0.0198081 0.00712116
-0.0536923 0.00526521 0.00306436
-0.0442627 0.0273944 0.00406303
-0.0218458 0.0273695 0.00274484
-0.047798 0.0767863 -0.0316376
-0.0228341 0.0113195 0.00517649
-0.0593622 0.0174906 -0.00113289
-0.0543065 0.00523728 0.002756
-0.0605227 0.00528903 -0.00145649
-0.0552698 0.00526521 0.00215364
-0.0557451 0.00522656 0.00176373
-0.0461765 0.0473673 0.00994397
-0.0561211 0.00531338 0.00154669
-0.0568323 0.00527113 0.00110718
-0.0492419 0.0148524 0.00598025
-0.0577319 0.00527229 0.000558901
-0.0177087 0.0476321 -0.0169214
-0.0693792 0.0486752 -0.0268925
-0.0582226 0.00522811 0.000294874
-0.0589681 0.00527473 -0.0002125
0.0151905 0.0455027 0.0496466
-0.0544951 0.00890004 0.00271636
-0.0560837 0.013827 0.00191465
-0.0600789 0.00528426 -0.00108481
-0.0373528 0.0588493 0.0113048
-0.0602964 0.00528903 -0.0013258
-0.0433088 0.0287453 0.0033436
-0.06085 0.00529617 -0.00181864
-0.0612876 0.0053057 -0.00230229
-0.0617288 0.00531407 -0.00275905
-0.0796459 0.047564 -0.00533812
-0.049439 0.0441266 -0.00406399
-0.0627458 0.00525314 -0.00346165
-0.0258983 0.046346 -0.0121426
-0.0660374 0.0256991 -0.00949014
-0.0776263 0.0475157 0.016728
-0.0318598 0.0491684 -0.005808
-0.0633104 0.00532244 -0.00387427
-0.0113167 0.0620937 -0.0171569
-0.0636521 0.00519087 -0.00407151
-0.0637965 0.00537265 -0.00430885
-0.048171 0.0402311 -0.00292774
-0.0161966 0.0143237 -0.00126822
-0.0573992 0.0149064 0.00080877
-0.0154528 0.0212948 -0.00257081
-0.0647747 0.00630395 -0.0285065
-0.0652645 0.00625837 -0.0289433
-0.037357 0.0283272 0.00553854
0.0346368 0.0455287 0.018381
-0.0658468 0.00631464 -0.0293853
-0.0507697 0.0438402 -0.00748806
-0.0408203 0.0270203 0.00524216
-0.0770051 0.04762 -0.028986
-0.0219317 0.00962009 0.00488915
-0.0666557 0.00631825 -0.0299389
0.0314982 0.0466865 0.0248828
-0.052797 0.0381978 -0.00530991
-0.0671966 0.00631825 -0.0302512
-0.0678726 0.00631825 -0.0306415
0.0148697 0.0463427 0.0204784
-0.0143556 0.00656714 -0.00193736
0.00215837 0.0476455 -0.00672129
-0.019243 0.00636695 -2.4816e-05
-0.0484009 0.0239347 0.003887
-0.0205066 0.00627418 0.00143954
-0.035851 0.0466253 0.0266826
-0.0237163 0.00973959 0.00426304
-0.0211135 0.00638036 0.0021284
-0.0667309 0.0246995 -0.0103524
-0.055191 0.0256322 -0.00149592
-0.0223843 0.00616676 0.00289584
0.0416003 0.0465006 0.0292141
-0.0589282 0.0169359 -0.000651365
-0.0232698 0.00628296 0.00313514
-0.0346436 0.0483292 -0.0124959
-0.0238203 0.00626046 0.00333692
-0.0172954 0.0447315 -0.0161054
-0.0667273 0.0574029 -0.00584698
-0.024149 0.00625047 0.0033781
-0.027415 0.0059324 0.00553389
-0.0300768 0.00586892 0.00549822
-0.0392086 0.011792 0.00680777
-0.0323457 0.00585916 0.00441921
0.0156085 0.0453287 0.0503499
-0.0337361 0.00581277 0.00471345
-0.029284 0.00819421 0.00491675
-0.0342965 0.00578103 0.00514043
-0.0346578 0.0057615 0.00539374
0.050672 0.0458318 0.0211726
-0.0348827 0.00588288 0.00566808
-0.039589 0.0491981 -0.00853845
-0.0352868 0.00573709 0.00560794
-0.0587873 0.0167464 -0.000454519
-0.0357542 0.00581754 0.00560751
-0.0615456 0.0366041 -0.0111692
-0.0698016 0.0559425 -0.0081993
-0.0363383 0.00584079 0.00473141
-0.0367151 0.00585893 0.00409049
-0.0369525 0.00578103 0.00360698
0.0047867 0.0473852 -0.00676267
-0.0376889 0.00580057 0.00271994
-0.0461808 0.0177341 0.00597704
-0.0611502 0.0247557 -0.00597568
-0.0382945 0.00580056 0.0023703
-0.0393112 0.00590788 0.00253388
-0.0407735 0.0337118 0.00451863
-0.0420158 0.0117289 0.00738094
-0.0423007 0.00987012 0.0078323
-0.0362622 0.0273463 0.00559323
-0.0397754 0.00588788 0.00272776
0.00161421 0.0493794 -0.00645812
-0.0402266 0.00581615 0.00306383
-0.040809 0.00582532 0.00357437
-0.0416606 0.00577299 0.00429512
-0.0442452 0.0258316 0.00517003
-0.0268596 0.0491413 -0.00857921
-0.0428084 0.00573338 0.00557618
-0.0456629 0.00542704 0.00694963
-0.0171943 0.0248219 -0.0009205
-0.0461975 0.00543437 0.00646774
-0.0397286 0.0106948 0.0067385
-0.0540448 0.00539042 0.00297634
-0.0292067 0.0448165 -0.0124746
-0.0631721 0.0173703 -0.00571891
-0.0580758 0.00540019 0.000418104
-0.0642086 0.00546611 -0.00468148
-0.0313947 0.0187552 0.0070852
-0.0212364 0.0469268 -0.0141084
-0.0654542 0.00547831 -0.0056893
-0.0654423 0.00646948 -0.0291229
-0.0143276 0.00690433 -0.00238306
-0.0644949 0.0111847 -0.0118905
-0.0148632 0.00688898 -0.0023459
-0.0494006 0.0252068 0.00334829
-0.00359992 0.046564 0.061892
0.00575978 0.0458286 0.00863704
-0.0568472 0.00682644 0.00124291
-0.01526 0.00687362 -0.00222857
-0.0767396 0.0473333 -0.0114255
-0.0163627 0.0068378 -0.00205691
-0.0166751 0.00683268 -0.0021218
-0.0172815 0.00680709 -0.00189454
-0.0185075 0.00673543 -0.000985826
-0.0249852 0.00635158 0.0039345
0.0360484 0.0480638 0.0330524
-0.0253826 0.0063311 0.00416696
-0.027788 0.046761 -0.0128102
-0.0283452 0.00631444 0.00603608
-0.0297342 0.00628954 0.00578261
-0.0302325 0.00628826 0.00552381
-0.030774 0.00623934 0.00524964
-0.06232 0.0265036 -0.0086718
-0.0312037 0.00633012 0.00507855
-0.0216691 0.0253197 0.00348198
