0.0257728488 -0.0499010405 -0.0076879456
-0.0138271512 -0.0319010405 -0.0148879456
-0.0138271512 -0.0283010405 -0.0220879456
0.0473728488 0.0004989595 -0.0004879456
0.0257728488 -0.0031010405 -0.0184879456
0.0113728488 -0.0103010405 0.0103120544
0.0041728488 -0.0211010405 -0.0076879456
0.0149728488 -0.0103010405 0.0067120544
-0.0030271512 0.0400989595 -0.0004879456
0.0113728488 -0.0175010405 -0.0040879456
-0.0030271512 0.0184989595 -0.0004879456
-0.0066271512 -0.0427010405 -0.0076879456
0.0365728488 -0.0427010405 0.0103120544
0.0293728488 0.0436989595 -0.0400879456
0.0185728488 -0.0139010405 -0.0148879456
0.0401728488 -0.0391010405 -0.0148879456
0.0077728488 0.0076989595 -0.0076879456
0.0293728488 0.0436989595 -0.0256879456
0.0545728488 0.0400989595 -0.0076879456
0.0185728488 0.0436989595 -0.0040879456
0.0473728488 0.0436989595 -0.0184879456
-0.0102271512 -0.0355010405 -0.0148879456
-0.0102271512 -0.0283010405 -0.0220879456
-0.0066271512 0.0256989595 -0.0148879456
-0.0066271512 0.0436989595 -0.0400879456
0.0329728488 -0.0499010405 0.0139120544
0.0365728488 -0.0283010405 -0.0112879456
0.0509728488 -0.0463010405 -0.0004879456
0.0185728488 0.0436989595 -0.0292879456
0.0257728488 0.0400989595 0.0031120544
0.0149728488 -0.0139010405 -0.0148879456
0.0293728488 0.0436989595 -0.0076879456
0.0257728488 0.0400989595 -0.0256879456
0.0221728488 0.0292989595 0.0031120544
-0.0030271512 0.0220989595 -0.0148879456
0.0221728488 0.0436989595 -0.0220879456
0.0257728488 0.0076989595 0.0031120544
0.0221728488 -0.0355010405 -0.0184879456
0.0257728488 0.0076989595 -0.0148879456
0.0401728488 -0.0463010405 -0.0040879456
-0.0066271512 -0.0211010405 -0.0004879456
-0.0066271512 -0.0175010405 -0.0040879456
0.0257728488 -0.0571010405 0.0103120544
0.0293728488 -0.0283010405 0.0103120544
0.0329728488 -0.0391010405 -0.0112879456
0.0149728488 0.0400989595 0.0139120544
-0.0210271512 0.0256989595 -0.0040879456
0.0221728488 -0.0499010405 -0.0004879456
0.0185728488 -0.0319010405 -0.0148879456
0.0005728488 0.0472989595 -0.0436879456
0.0329728488 -0.0283010405 0.0103120544
0.0257728488 0.0112989595 -0.0148879456
0.0113728488 -0.0427010405 0.0031120544
0.0149728488 -0.0031010405 0.0067120544
-0.0030271512 0.0400989595 -0.0256879456
0.0293728488 0.0328989595 0.0031120544
0.0149728488 -0.0247010405 0.0103120544
0.0185728488 -0.0391010405 -0.0040879456
0.0149728488 -0.0283010405 0.0103120544
-0.0066271512 -0.0391010405 -0.0112879456
0.0293728488 -0.0067010405 -0.0148879456
0.0149728488 -0.0499010405 -0.0004879456
0.0041728488 -0.0499010405 -0.0004879456
-0.0246271512 0.0472989595 0.0067120544
-0.0066271512 -0.0427010405 -0.0112879456
0.0005728488 -0.0571010405 -0.0040879456
0.0113728488 -0.0319010405 -0.0040879456
0.0005728488 0.0328989595 -0.0076879456
-0.0066271512 0.0148989595 -0.0040879456
0.0149728488 -0.0319010405 0.0031120544
0.0329728488 0.0004989595 -0.0004879456
0.0113728488 -0.0355010405 -0.0076879456
-0.0174271512 0.0472989595 -0.0292879456
0.0149728488 0.0436989595 -0.0400879456
0.0401728488 -0.0319010405 -0.0040879456
0.0185728488 -0.0283010405 -0.0076879456
0.0257728488 0.0004989595 -0.0148879456
0.0329728488 -0.0067010405 -0.0004879456
0.0005728488 -0.0391010405 -0.0004879456
0.0329728488 0.0436989595 -0.0436879456
0.0365728488 0.0400989595 -0.0292879456
0.0329728488 0.0400989595 -0.0076879456
0.0185728488 0.0436989595 0.0103120544
0.0041728488 -0.0031010405 -0.0004879456
0.0005728488 0.0472989595 0.0211120544
0.0401728488 -0.0319010405 -0.0076879456
0.0113728488 -0.0211010405 0.0031120544
0.0041728488 -0.0067010405 -0.0040879456
0.0437728488 -0.0247010405 -0.0076879456
-0.0246271512 0.0292989595 -0.0040879456
-0.0066271512 0.0220989595 -0.0220879456
0.0329728488 -0.0319010405 -0.0184879456
0.0293728488 0.0472989595 -0.0220879456
0.0293728488 0.0076989595 -0.0040879456
0.0113728488 -0.0319010405 0.0067120544
0.0257728488 -0.0103010405 -0.0148879456
0.0221728488 0.0184989595 -0.0040879456
-0.0174271512 0.0400989595 -0.0256879456
0.0041728488 -0.0103010405 0.0031120544
0.0077728488 0.0400989595 -0.0436879456
0.0113728488 -0.0175010405 -0.0004879456
0.0329728488 -0.0103010405 -0.0040879456
0.0077728488 -0.0211010405 0.0103120544
0.0473728488 -0.0571010405 0.0103120544
-0.0174271512 0.0292989595 -0.0112879456
0.0365728488 0.0004989595 -0.0076879456
0.0077728488 -0.0319010405 -0.0076879456
0.0401728488 -0.0283010405 0.0067120544
-0.0030271512 0.0400989595 0.0139120544
0.0401728488 -0.0283010405 -0.0112879456
0.0365728488 0.0076989595 0.0103120544
0.0293728488 -0.0427010405 -0.0112879456
0.0401728488 -0.0463010405 0.0103120544
0.0113728488 0.0400989595 -0.0004879456
0.0257728488 0.0328989595 -0.0004879456
0.0437728488 -0.0571010405 -0.0040879456
0.0257728488 0.0400989595 -0.0400879456
0.0437728488 0.0004989595 0.0103120544
-0.0066271512 -0.0247010405 -0.0112879456
0.0293728488 0.0076989595 -0.0076879456
-0.0102271512 0.0436989595 -0.0400879456
0.0401728488 0.0472989595 -0.0184879456
0.0077728488 0.0112989595 -0.0112879456
0.0077728488 0.0400989595 0.0103120544
-0.0138271512 0.0364989595 -0.0220879456
0.0005728488 0.0184989595 -0.0040879456
0.0077728488 0.0328989595 -0.0148879456
0.0293728488 0.0004989595 0.0175120544
-0.0066271512 0.0472989595 0.0067120544
0.0005728488 0.0220989595 -0.0220879456
0.0257728488 0.0256989595 -0.0076879456
0.0149728488 -0.0355010405 -0.0040879456
0.0221728488 -0.0247010405 0.0139120544
0.0221728488 0.0400989595 -0.0256879456
-0.0030271512 0.0400989595 -0.0220879456
0.0185728488 0.0400989595 -0.0328879456
0.0221728488 0.0040989595 -0.0148879456
-0.0246271512 0.0436989595 -0.0040879456
0.0293728488 0.0112989595 0.0031120544
0.0185728488 0.0400989595 -0.0292879456
0.0257728488 0.0508989595 0.0247120544
0.0149728488 -0.0247010405 -0.0112879456
0.0581728488 0.0400989595 -0.0076879456
0.0257728488 0.0400989595 0.0139120544
0.0113728488 0.0112989595 -0.0112879456
0.0437728488 0.0040989595 -0.0040879456
-0.0066271512 -0.0319010405 -0.0256879456
-0.0102271512 0.0328989595 -0.0256879456
0.0077728488 0.0400989595 -0.0292879456
-0.0174271512 0.0364989595 -0.0184879456
-0.0066271512 -0.0103010405 -0.0004879456
0.0113728488 -0.0031010405 -0.0112879456
0.0041728488 -0.0427010405 0.0067120544
0.0437728488 -0.0283010405 -0.0040879456
-0.0246271512 0.0436989595 -0.0004879456
0.0113728488 0.0400989595 0.0139120544
0.0581728488 -0.0427010405 0.0031120544
0.0149728488 0.0436989595 -0.0364879456
0.0185728488 -0.0319010405 -0.0184879456
0.0113728488 -0.0463010405 0.0067120544
0.0149728488 -0.0283010405 -0.0112879456
0.0401728488 0.0040989595 0.0031120544
0.0113728488 -0.0499010405 0.0031120544
0.0257728488 0.0436989595 -0.0364879456
0.0437728488 -0.0319010405 0.0031120544
0.0041728488 0.0328989595 -0.0148879456
0.0401728488 -0.0211010405 0.0067120544
0.0041728488 -0.0067010405 -0.0112879456
0.0005728488 0.0508989595 0.0571120544
0.0401728488 0.0400989595 -0.0148879456
0.0473728488 -0.0319010405 0.0067120544
0.0257728488 0.0400989595 -0.0076879456
0.0005728488 -0.0175010405 0.0031120544
0.0401728488 -0.0031010405 0.0031120544
0.0293728488 -0.0139010405 -0.0076879456
0.0041728488 -0.0175010405 0.0067120544
0.0401728488 -0.0139010405 -0.0040879456
0.0185728488 -0.0283010405 -0.0148879456
0.0221728488 0.0436989595 -0.0040879456
0.0221728488 0.0436989595 -0.0076879456
0.0509728488 -0.0247010405 -0.0004879456
0.0005728488 -0.0067010405 -0.0004879456
-0.0246271512 0.0328989595 -0.0040879456
0.0185728488 -0.0247010405 -0.0076879456
0.0293728488 -0.0391010405 -0.0076879456
0.0185728488 -0.0427010405 0.0103120544
0.0437728488 0.0436989595 -0.0112879456
0.0005728488 -0.0175010405 -0.0040879456
0.0257728488 -0.0319010405 0.0103120544
0.0257728488 -0.0391010405 -0.0076879456
-0.0138271512 0.0472989595 0.0031120544
-0.0138271512 0.0472989595 -0.0364879456
0.0365728488 0.0400989595 -0.0184879456
-0.0102271512 -0.0247010405 -0.0256879456
-0.0102271512 -0.0319010405 -0.0184879456
0.0149728488 0.0400989595 -0.0400879456
0.0329728488 -0.0427010405 0.0139120544
-0.0066271512 0.0004989595 -0.0076879456
-0.0174271512 0.0436989595 -0.0256879456
0.0365728488 -0.0067010405 0.0031120544
0.0293728488 0.0292989595 0.0031120544
0.0149728488 -0.0391010405 -0.0040879456
0.0041728488 0.0076989595 -0.0040879456
0.0329728488 -0.0355010405 -0.0076879456
0.0509728488 -0.0463010405 -0.0040879456
0.0077728488 0.0436989595 -0.0400879456
0.0113728488 0.0436989595 -0.0400879456
0.0077728488 -0.0139010405 0.0031120544
0.0401728488 0.0400989595 -0.0184879456
0.0437728488 -0.0031010405 -0.0040879456
0.0005728488 -0.0535010405 0.0067120544
0.0257728488 0.0004989595 0.0103120544
0.0365728488 -0.0175010405 -0.0040879456
0.0221728488 -0.0103010405 0.0067120544
0.0257728488 -0.0211010405 -0.0148879456
0.0077728488 0.0472989595 0.0175120544
0.0545728488 -0.0427010405 -0.0040879456
0.0221728488 0.0400989595 -0.0436879456
0.0149728488 -0.0355010405 -0.0004879456
0.0257728488 0.0184989595 -0.0076879456
0.0077728488 -0.0247010405 0.0031120544
-0.0030271512 -0.0211010405 -0.0076879456
-0.0030271512 -0.0571010405 -0.0004879456
-0.0102271512 -0.0355010405 -0.0076879456
0.0185728488 -0.0283010405 0.0103120544
0.0077728488 0.0472989595 0.0247120544
0.0077728488 -0.0067010405 -0.0076879456
-0.0030271512 0.0436989595 0.0139120544
0.0473728488 -0.0067010405 -0.0040879456
0.0113728488 0.0400989595 -0.0364879456
0.0401728488 0.0400989595 0.0211120544
0.0005728488 0.0112989595 -0.0004879456
0.0293728488 -0.0247010405 -0.0184879456
0.0041728488 0.0400989595 0.0103120544
-0.0138271512 -0.0355010405 -0.0040879456
0.0077728488 0.0400989595 -0.0184879456
0.0509728488 -0.0535010405 0.0103120544
0.0185728488 -0.0355010405 -0.0184879456
0.0401728488 0.0436989595 -0.0112879456
0.0221728488 -0.0607010405 -0.0004879456
-0.0138271512 0.0328989595 -0.0148879456
0.0329728488 0.0400989595 0.0175120544
0.0293728488 0.0328989595 -0.0004879456
-0.0246271512 0.0256989595 -0.0076879456
0.0581728488 -0.0355010405 -0.0040879456
-0.0066271512 0.0400989595 0.0175120544
0.0149728488 0.0076989595 -0.0184879456
0.0365728488 0.0364989595 -0.0040879456
0.0257728488 0.0220989595 -0.0076879456
0.0365728488 -0.0067010405 0.0103120544
0.0365728488 0.0400989595 0.0103120544
0.0185728488 0.0436989595 -0.0076879456
0.0149728488 -0.0139010405 0.0067120544
0.0005728488 0.0436989595 -0.0292879456
0.0293728488 -0.0607010405 0.0139120544
-0.0030271512 0.0256989595 -0.0040879456
0.0113728488 0.0400989595 -0.0184879456
0.0257728488 -0.0355010405 -0.0220879456
0.0437728488 0.0400989595 -0.0112879456
-0.0138271512 0.0364989595 0.0067120544
0.0473728488 -0.0391010405 0.0031120544
-0.0102271512 -0.0247010405 -0.0040879456
0.0149728488 0.0436989595 -0.0292879456
0.0365728488 0.0472989595 -0.0256879456
0.0005728488 -0.0499010405 -0.0004879456
0.0041728488 0.0364989595 -0.0112879456
0.0365728488 0.0004989595 0.0103120544
0.0041728488 -0.0031010405 0.0031120544
-0.0210271512 0.0436989595 -0.0328879456
0.0185728488 -0.0427010405 0.0067120544
0.0077728488 -0.0499010405 0.0031120544
0.0185728488 -0.0391010405 -0.0112879456
0.0365728488 0.0472989595 -0.0184879456
0.0365728488 -0.0175010405 0.0031120544
0.0005728488 -0.0535010405 -0.0004879456
-0.0102271512 0.0256989595 -0.0112879456
0.0293728488 -0.0643010405 -0.0040879456
-0.0030271512 -0.0319010405 -0.0184879456
0.0329728488 -0.0607010405 -0.0040879456
0.0221728488 -0.0355010405 -0.0112879456
0.0149728488 -0.0463010405 0.0031120544
0.0509728488 -0.0499010405 -0.0184879456
0.0077728488 0.0508989595 0.0535120544
0.0293728488 0.0436989595 -0.0184879456
0.0293728488 0.0400989595 -0.0004879456
-0.0282271512 0.0400989595 -0.0112879456
0.0329728488 0.0472989595 -0.0184879456
0.0077728488 -0.0283010405 -0.0040879456
-0.0246271512 0.0400989595 -0.0040879456
0.0149728488 -0.0391010405 -0.0004879456
0.0185728488 0.0364989595 0.0031120544
-0.0174271512 0.0436989595 -0.0328879456
-0.0246271512 0.0472989595 -0.0076879456
0.0257728488 -0.0391010405 -0.0148879456
0.0437728488 -0.0391010405 -0.0148879456
0.0293728488 -0.0607010405 0.0031120544
0.0077728488 -0.0031010405 0.0067120544
0.0293728488 -0.0031010405 0.0175120544
-0.0030271512 -0.0499010405 -0.0004879456
-0.0138271512 0.0436989595 0.0067120544
0.0257728488 0.0436989595 -0.0040879456
0.0221728488 -0.0391010405 -0.0112879456
-0.0210271512 0.0400989595 -0.0328879456
-0.0030271512 -0.0175010405 -0.0040879456
-0.0210271512 0.0436989595 -0.0148879456
0.0401728488 0.0472989595 0.0139120544
-0.0282271512 0.0400989595 -0.0076879456
0.0365728488 -0.0175010405 -0.0112879456
0.0185728488 -0.0391010405 0.0031120544
0.0221728488 -0.0427010405 -0.0076879456
-0.0138271512 0.0400989595 -0.0364879456
0.0293728488 0.0400989595 -0.0184879456
0.0005728488 -0.0427010405 -0.0040879456
0.0005728488 -0.0463010405 -0.0112879456
0.0437728488 0.0472989595 0.0139120544
-0.0246271512 0.0436989595 -0.0112879456
0.0185728488 -0.0355010405 -0.0076879456
-0.0066271512 -0.0247010405 0.0031120544
0.0113728488 -0.0247010405 -0.0076879456
0.0401728488 -0.0427010405 0.0103120544
0.0401728488 0.0040989595 0.0103120544
0.0293728488 -0.0391010405 -0.0148879456
-0.0174271512 0.0400989595 0.0139120544
-0.0174271512 0.0328989595 -0.0184879456
-0.0174271512 0.0364989595 0.0031120544
0.0437728488 -0.0391010405 -0.0040879456
-0.0030271512 0.0472989595 0.0103120544
0.0257728488 0.0436989595 0.0175120544
0.0113728488 -0.0283010405 -0.0076879456
-0.0246271512 0.0400989595 0.0031120544
0.0221728488 0.0328989595 0.0067120544
0.0401728488 -0.0211010405 0.0031120544
0.0329728488 0.0472989595 -0.0220879456
-0.0174271512 0.0292989595 -0.0184879456
-0.0066271512 0.0148989595 -0.0076879456
-0.0246271512 0.0400989595 -0.0256879456
-0.0210271512 0.0472989595 -0.0328879456
-0.0210271512 0.0400989595 -0.0076879456
-0.0102271512 -0.0247010405 -0.0220879456
-0.0030271512 -0.0211010405 -0.0112879456
0.0185728488 -0.0319010405 0.0103120544
-0.0030271512 -0.0499010405 0.0031120544
0.0185728488 -0.0463010405 0.0139120544
-0.0102271512 -0.0283010405 -0.0256879456
-0.0030271512 -0.0211010405 -0.0256879456
0.0077728488 -0.0319010405 -0.0040879456
0.0473728488 -0.0463010405 -0.0148879456
-0.0066271512 -0.0391010405 -0.0040879456
0.0113728488 -0.0319010405 -0.0076879456
0.0329728488 -0.0607010405 0.0175120544
-0.0102271512 -0.0355010405 -0.0040879456
0.0293728488 -0.0211010405 0.0103120544
-0.0066271512 -0.0355010405 -0.0112879456
-0.0102271512 0.0436989595 0.0139120544
0.0329728488 -0.0031010405 0.0175120544
-0.0066271512 -0.0211010405 -0.0076879456
0.0149728488 0.0400989595 -0.0184879456
-0.0066271512 -0.0247010405 -0.0076879456
-0.0066271512 0.0508989595 0.0535120544
-0.0102271512 -0.0319010405 -0.0040879456
-0.0102271512 0.0328989595 0.0031120544
-0.0174271512 0.0400989595 0.0103120544
-0.0066271512 0.0400989595 -0.0400879456
0.0257728488 -0.0499010405 0.0139120544
-0.0066271512 -0.0211010405 -0.0220879456
0.0005728488 -0.0031010405 -0.0004879456
-0.0066271512 -0.0427010405 -0.0040879456
0.0257728488 0.0256989595 -0.0040879456
0.0257728488 -0.0643010405 -0.0004879456
-0.0030271512 0.0328989595 0.0031120544
0.0257728488 0.0364989595 -0.0040879456
-0.0246271512 0.0472989595 -0.0256879456
0.0473728488 0.0472989595 -0.0400879456
0.0257728488 -0.0391010405 -0.0184879456
-0.0282271512 0.0436989595 -0.0256879456
-0.0030271512 -0.0211010405 0.0031120544
0.0257728488 0.0220989595 -0.0004879456
0.0041728488 -0.0427010405 0.0031120544
-0.0066271512 -0.0211010405 -0.0040879456
-0.0102271512 -0.0319010405 -0.0256879456
0.0257728488 0.0220989595 0.0031120544
0.0005728488 0.0400989595 0.0067120544
-0.0282271512 0.0364989595 -0.0040879456
-0.0066271512 0.0040989595 -0.0076879456
0.0293728488 0.0400989595 -0.0472879456
0.0509728488 0.0436989595 0.0067120544
0.0113728488 -0.0499010405 -0.0040879456
-0.0030271512 -0.0427010405 -0.0004879456
-0.0282271512 0.0472989595 -0.0220879456
-0.0210271512 0.0436989595 -0.0220879456
-0.0066271512 0.0400989595 -0.0004879456
0.0149728488 0.0436989595 -0.0328879456
0.0581728488 -0.0319010405 -0.0040879456
-0.0066271512 -0.0283010405 -0.0184879456
0.0185728488 -0.0247010405 0.0103120544
0.0257728488 0.0256989595 0.0031120544
0.0329728488 -0.0643010405 -0.0004879456
-0.0138271512 -0.0355010405 -0.0076879456
0.0185728488 -0.0031010405 0.0103120544
0.0005728488 -0.0499010405 0.0031120544
-0.0138271512 0.0472989595 -0.0400879456
0.0077728488 0.0040989595 0.0103120544
-0.0102271512 -0.0211010405 -0.0220879456
-0.0030271512 0.0436989595 0.0103120544
0.0473728488 0.0040989595 -0.0040879456
0.0077728488 0.0400989595 -0.0328879456
0.0617728488 0.0400989595 -0.0148879456
-0.0066271512 -0.0175010405 -0.0004879456
0.0077728488 0.0436989595 -0.0328879456
0.0077728488 0.0436989595 -0.0364879456
-0.0030271512 -0.0535010405 0.0031120544
-0.0102271512 -0.0283010405 -0.0040879456
0.0077728488 -0.0427010405 0.0031120544
-0.0282271512 0.0436989595 -0.0184879456
0.0437728488 -0.0571010405 0.0103120544
-0.0066271512 -0.0391010405 -0.0148879456
-0.0174271512 0.0436989595 -0.0364879456
0.0257728488 0.0040989595 0.0175120544
0.0329728488 0.0400989595 -0.0040879456
0.0293728488 0.0112989595 -0.0040879456
0.0185728488 -0.0175010405 -0.0076879456
0.0509728488 0.0400989595 -0.0328879456
-0.0246271512 0.0436989595 -0.0184879456
0.0005728488 0.0436989595 0.0103120544
0.0293728488 0.0364989595 -0.0256879456
0.0473728488 -0.0355010405 -0.0148879456
0.0509728488 0.0400989595 0.0103120544
-0.0066271512 -0.0175010405 -0.0076879456
0.0113728488 -0.0355010405 0.0031120544
0.0113728488 -0.0499010405 0.0139120544
-0.0030271512 0.0040989595 -0.0040879456
0.0365728488 -0.0139010405 0.0031120544
-0.0246271512 0.0436989595 -0.0220879456
0.0185728488 -0.0499010405 0.0175120544
-0.0066271512 -0.0283010405 -0.0112879456
-0.0282271512 0.0436989595 -0.0220879456
-0.0066271512 0.0040989595 -0.0040879456
-0.0030271512 -0.0355010405 -0.0148879456
0.0293728488 -0.0211010405 0.0067120544
0.0257728488 0.0364989595 -0.0292879456
0.0005728488 0.0400989595 -0.0436879456
-0.0066271512 0.0508989595 0.0499120544
-0.0282271512 0.0400989595 -0.0148879456
-0.0282271512 0.0436989595 -0.0148879456
0.0257728488 -0.0103010405 0.0067120544
-0.0282271512 0.0472989595 -0.0256879456
0.0041728488 -0.0319010405 -0.0004879456
0.0329728488 -0.0139010405 -0.0004879456
-0.0138271512 -0.0247010405 -0.0220879456
0.0005728488 0.0400989595 0.0175120544
0.0581728488 0.0400989595 -0.0112879456
-0.0066271512 -0.0283010405 -0.0292879456
0.0185728488 -0.0391010405 -0.0004879456
-0.0102271512 0.0436989595 -0.0292879456
0.0041728488 -0.0067010405 0.0031120544
-0.0102271512 -0.0355010405 -0.0004879456
0.0077728488 0.0004989595 -0.0076879456
-0.0066271512 0.0436989595 -0.0436879456
0.0221728488 -0.0319010405 -0.0220879456
-0.0030271512 -0.0355010405 -0.0040879456
-0.0030271512 0.0400989595 0.0175120544
-0.0066271512 -0.0211010405 -0.0112879456
0.0005728488 0.0004989595 -0.0004879456
0.0041728488 0.0004989595 -0.0004879456
-0.0066271512 0.0076989595 -0.0040879456
0.0077728488 0.0436989595 -0.0256879456
-0.0174271512 0.0436989595 -0.0220879456
0.0113728488 0.0364989595 -0.0220879456
-0.0030271512 -0.0571010405 0.0031120544
-0.0066271512 -0.0247010405 -0.0220879456
0.0005728488 -0.0463010405 0.0031120544
0.0257728488 0.0112989595 0.0031120544
-0.0030271512 -0.0535010405 0.0067120544
0.0185728488 -0.0499010405 -0.0004879456
0.0113728488 -0.0139010405 0.0103120544
-0.0030271512 -0.0175010405 -0.0004879456
0.0005728488 0.0400989595 -0.0004879456
-0.0030271512 -0.0463010405 0.0031120544
-0.0030271512 0.0472989595 -0.0364879456
0.0329728488 -0.0103010405 0.0067120544
-0.0030271512 -0.0247010405 -0.0112879456
-0.0066271512 -0.0355010405 -0.0004879456
-0.0066271512 -0.0247010405 -0.0004879456
-0.0066271512 -0.0283010405 -0.0004879456
0.0473728488 -0.0427010405 0.0067120544
0.0329728488 -0.0319010405 0.0139120544
-0.0282271512 0.0436989595 -0.0076879456
0.0221728488 -0.0283010405 -0.0184879456
-0.0066271512 -0.0319010405 -0.0004879456
-0.0282271512 0.0436989595 -0.0112879456
0.0617728488 -0.0355010405 -0.0004879456
-0.0102271512 -0.0391010405 -0.0004879456
-0.0066271512 -0.0427010405 -0.0004879456
0.0221728488 -0.0571010405 0.0067120544
0.0221728488 -0.0571010405 -0.0040879456
0.0005728488 -0.0463010405 -0.0004879456
-0.0066271512 -0.0391010405 -0.0004879456
-0.0210271512 0.0328989595 -0.0148879456
0.0437728488 -0.0139010405 -0.0004879456
0.0041728488 0.0220989595 -0.0112879456
0.0113728488 -0.0391010405 -0.0076879456
0.0077728488 -0.0211010405 -0.0040879456
-0.0138271512 0.0292989595 -0.0220879456
0.0221728488 -0.0391010405 0.0139120544
0.0185728488 -0.0139010405 0.0067120544
0.0473728488 -0.0391010405 -0.0112879456
-0.0102271512 -0.0247010405 -0.0184879456
0.0077728488 -0.0067010405 -0.0040879456
0.0185728488 0.0400989595 0.0103120544
-0.0318271512 0.0472989595 -0.0112879456
-0.0282271512 0.0472989595 -0.0112879456
0.0041728488 0.0472989595 -0.0400879456
0.0005728488 -0.0463010405 0.0067120544
0.0365728488 -0.0499010405 0.0139120544
-0.0210271512 0.0256989595 -0.0112879456
0.0221728488 -0.0319010405 -0.0112879456
0.0329728488 -0.0067010405 0.0067120544
-0.0282271512 0.0400989595 -0.0040879456
-0.0102271512 -0.0247010405 -0.0076879456
0.0437728488 -0.0463010405 0.0103120544
0.0329728488 -0.0283010405 0.0139120544
-0.0102271512 -0.0283010405 -0.0004879456
0.0005728488 0.0076989595 -0.0040879456
0.0041728488 0.0436989595 0.0211120544
0.0005728488 0.0472989595 -0.0364879456
-0.0138271512 0.0256989595 -0.0040879456
-0.0282271512 0.0400989595 -0.0220879456
0.0401728488 -0.0427010405 0.0139120544
-0.0210271512 0.0364989595 -0.0148879456
-0.0318271512 0.0436989595 -0.0112879456
0.0149728488 -0.0355010405 0.0067120544
0.0365728488 0.0400989595 -0.0256879456
0.0257728488 0.0148989595 0.0067120544
-0.0102271512 -0.0283010405 -0.0148879456
-0.0066271512 -0.0139010405 -0.0040879456
-0.0066271512 -0.0211010405 -0.0184879456
-0.0066271512 -0.0211010405 -0.0148879456
-0.0030271512 0.0076989595 -0.0004879456
0.0041728488 0.0508989595 0.0571120544
0.0005728488 -0.0283010405 -0.0076879456
0.0005728488 0.0040989595 -0.0040879456
0.0185728488 -0.0427010405 0.0175120544
-0.0102271512 -0.0283010405 -0.0184879456
0.0005728488 0.0076989595 -0.0004879456
0.0401728488 0.0436989595 0.0211120544
0.0401728488 0.0040989595 0.0139120544
-0.0030271512 -0.0535010405 -0.0004879456
0.0257728488 0.0148989595 -0.0040879456
-0.0066271512 -0.0247010405 -0.0148879456
-0.0102271512 -0.0211010405 -0.0184879456
-0.0282271512 0.0436989595 -0.0040879456
0.0221728488 0.0220989595 -0.0004879456
-0.0174271512 0.0436989595 -0.0184879456
-0.0102271512 -0.0247010405 -0.0004879456
0.0149728488 -0.0067010405 0.0103120544
0.0149728488 0.0400989595 0.0247120544
-0.0282271512 0.0292989595 -0.0040879456
-0.0102271512 -0.0283010405 -0.0076879456
0.0257728488 -0.0535010405 -0.0076879456
-0.0318271512 0.0472989595 -0.0076879456
0.0077728488 0.0148989595 -0.0112879456
-0.0282271512 0.0472989595 -0.0076879456
-0.0102271512 -0.0247010405 -0.0148879456
0.0293728488 0.0364989595 -0.0184879456
0.0293728488 0.0148989595 -0.0040879456
0.0077728488 -0.0247010405 -0.0040879456
-0.0318271512 0.0436989595 -0.0076879456
0.0185728488 0.0436989595 -0.0328879456
-0.0282271512 0.0472989595 -0.0040879456
-0.0246271512 0.0400989595 -0.0292879456
0.0365728488 0.0364989595 -0.0220879456
-0.0210271512 0.0436989595 0.0031120544
-0.0174271512 0.0400989595 -0.0004879456
-0.0246271512 0.0400989595 -0.0004879456
0.0545728488 0.0472989595 -0.0004879456
0.0221728488 0.0364989595 -0.0040879456
-0.0030271512 -0.0139010405 0.0031120544
-0.0246271512 0.0436989595 -0.0076879456
-0.0246271512 0.0436989595 0.0031120544
-0.0210271512 0.0400989595 -0.0004879456
0.0185728488 0.0004989595 0.0067120544
0.0077728488 0.0004989595 0.0067120544
-0.0030271512 -0.0175010405 0.0031120544
-0.0102271512 -0.0319010405 -0.0148879456
0.0509728488 -0.0535010405 -0.0148879456
-0.0210271512 0.0400989595 0.0067120544
0.0077728488 0.0400989595 0.0211120544
0.0041728488 0.0040989595 0.0031120544
0.0329728488 -0.0139010405 -0.0148879456
-0.0138271512 0.0400989595 0.0067120544
0.0077728488 0.0004989595 0.0031120544
0.0329728488 0.0436989595 0.0067120544
-0.0102271512 -0.0355010405 -0.0184879456
-0.0030271512 -0.0319010405 -0.0148879456
0.0005728488 -0.0139010405 0.0031120544
0.0293728488 -0.0175010405 0.0067120544
-0.0246271512 0.0256989595 -0.0004879456
-0.0030271512 -0.0427010405 0.0031120544
-0.0210271512 0.0436989595 0.0067120544
0.0437728488 0.0076989595 -0.0004879456
-0.0282271512 0.0472989595 -0.0004879456
-0.0138271512 0.0400989595 0.0103120544
-0.0066271512 -0.0247010405 -0.0184879456
0.0041728488 0.0040989595 -0.0004879456
-0.0030271512 0.0364989595 -0.0184879456
0.0041728488 0.0112989595 -0.0004879456
-0.0174271512 0.0364989595 -0.0004879456
-0.0066271512 0.0472989595 0.0211120544
0.0077728488 -0.0103010405 0.0031120544
0.0509728488 -0.0391010405 -0.0148879456
-0.0210271512 0.0256989595 -0.0004879456
-0.0102271512 0.0400989595 0.0067120544
0.0113728488 -0.0427010405 0.0139120544
0.0077728488 0.0040989595 0.0067120544
-0.0030271512 0.0436989595 0.0067120544
-0.0030271512 0.0040989595 -0.0004879456
0.0113728488 0.0076989595 0.0031120544
0.0293728488 0.0436989595 -0.0292879456
-0.0210271512 0.0292989595 -0.0004879456
-0.0102271512 0.0364989595 0.0067120544
0.0293728488 0.0400989595 0.0175120544
0.0113728488 0.0040989595 0.0103120544
0.0041728488 0.0256989595 -0.0040879456
0.0149728488 -0.0391010405 0.0067120544
0.0185728488 -0.0391010405 0.0103120544
0.0473728488 0.0400989595 -0.0040879456
0.0221728488 -0.0355010405 0.0139120544
0.0509728488 -0.0355010405 -0.0184879456
-0.0174271512 0.0328989595 0.0031120544
-0.0030271512 0.0508989595 0.0571120544
0.0257728488 -0.0571010405 0.0175120544
-0.0102271512 0.0400989595 0.0103120544
0.0185728488 -0.0355010405 0.0103120544
0.0113728488 -0.0031010405 0.0067120544
0.0401728488 -0.0607010405 -0.0040879456
-0.0174271512 0.0292989595 -0.0004879456
0.0149728488 -0.0427010405 0.0139120544
0.0005728488 -0.0427010405 0.0031120544
0.0509728488 -0.0391010405 -0.0004879456
0.0185728488 -0.0463010405 0.0175120544
0.0149728488 -0.0427010405 0.0103120544
0.0149728488 0.0436989595 0.0175120544
-0.0030271512 0.0472989595 0.0211120544
-0.0066271512 -0.0283010405 0.0031120544
0.0077728488 0.0076989595 0.0067120544
-0.0030271512 -0.0355010405 0.0031120544
-0.0174271512 0.0472989595 0.0067120544
0.0185728488 -0.0391010405 0.0067120544
-0.0174271512 0.0256989595 0.0031120544
0.0329728488 -0.0175010405 0.0067120544
0.0257728488 -0.0031010405 -0.0112879456
-0.0174271512 0.0472989595 0.0031120544
-0.0066271512 -0.0427010405 0.0031120544
0.0149728488 -0.0427010405 0.0067120544
0.0401728488 -0.0103010405 0.0031120544
0.0293728488 -0.0427010405 0.0139120544
0.0113728488 -0.0427010405 0.0067120544
0.0221728488 0.0472989595 0.0211120544
0.0113728488 0.0364989595 0.0031120544
0.0221728488 0.0508989595 0.0247120544
-0.0174271512 0.0472989595 0.0103120544
0.0581728488 0.0472989595 -0.0256879456
-0.0174271512 0.0328989595 -0.0004879456
-0.0102271512 0.0328989595 0.0067120544
0.0113728488 -0.0391010405 -0.0040879456
0.0041728488 -0.0355010405 0.0031120544
0.0149728488 0.0004989595 0.0103120544
0.0149728488 -0.0535010405 0.0103120544
-0.0102271512 0.0472989595 0.0139120544
0.0329728488 0.0436989595 0.0103120544
-0.0102271512 0.0364989595 0.0103120544
0.0185728488 -0.0535010405 0.0139120544
0.0077728488 0.0076989595 0.0031120544
0.0041728488 0.0076989595 -0.0004879456
0.0293728488 -0.0499010405 0.0139120544
0.0437728488 0.0400989595 -0.0364879456
-0.0138271512 0.0328989595 0.0031120544
0.0509728488 0.0004989595 -0.0004879456
0.0149728488 -0.0463010405 0.0103120544
0.0221728488 0.0292989595 -0.0076879456
0.0329728488 0.0436989595 -0.0364879456
-0.0138271512 0.0256989595 0.0031120544
0.0041728488 -0.0103010405 0.0067120544
-0.0318271512 0.0400989595 -0.0112879456
0.0473728488 -0.0463010405 0.0067120544
0.0185728488 -0.0391010405 0.0139120544
0.0221728488 -0.0499010405 0.0139120544
-0.0030271512 -0.0391010405 0.0031120544
0.0041728488 0.0076989595 0.0031120544
0.0473728488 -0.0247010405 -0.0004879456
-0.0282271512 0.0400989595 -0.0004879456
0.0113728488 0.0004989595 0.0067120544
0.0509728488 0.0400989595 -0.0256879456
-0.0210271512 0.0364989595 -0.0004879456
0.0113728488 -0.0103010405 0.0067120544
-0.0174271512 0.0292989595 0.0031120544
0.0401728488 0.0076989595 -0.0040879456
0.0113728488 0.0040989595 0.0067120544
-0.0282271512 0.0400989595 0.0031120544
-0.0174271512 0.0220989595 0.0031120544
0.0185728488 -0.0355010405 0.0067120544
-0.0030271512 0.0292989595 -0.0148879456
0.0221728488 -0.0355010405 0.0103120544
0.0041728488 -0.0175010405 0.0103120544
-0.0138271512 0.0292989595 0.0031120544
-0.0138271512 0.0292989595 0.0067120544
-0.0030271512 0.0364989595 -0.0292879456
0.0509728488 0.0472989595 -0.0364879456
-0.0210271512 0.0436989595 -0.0004879456
0.0077728488 -0.0103010405 0.0067120544
0.0005728488 0.0400989595 0.0031120544
-0.0138271512 0.0436989595 0.0139120544
0.0365728488 0.0076989595 -0.0040879456
0.0113728488 0.0076989595 0.0067120544
-0.0030271512 -0.0319010405 -0.0004879456
0.0437728488 -0.0175010405 -0.0076879456
0.0005728488 -0.0139010405 0.0067120544
-0.0030271512 -0.0391010405 -0.0040879456
0.0005728488 -0.0211010405 0.0031120544
0.0149728488 -0.0067010405 0.0067120544
0.0185728488 -0.0319010405 0.0067120544
0.0257728488 -0.0067010405 0.0103120544
0.0257728488 0.0400989595 -0.0112879456
0.0005728488 -0.0175010405 0.0067120544
0.0005728488 -0.0391010405 0.0031120544
-0.0210271512 0.0472989595 0.0067120544
0.0257728488 0.0436989595 0.0211120544
-0.0102271512 0.0292989595 0.0067120544
0.0077728488 -0.0283010405 0.0031120544
-0.0174271512 0.0220989595 -0.0004879456
-0.0030271512 0.0436989595 0.0175120544
0.0149728488 -0.0319010405 0.0067120544
0.0041728488 0.0040989595 0.0067120544
-0.0318271512 0.0472989595 -0.0184879456
0.0329728488 -0.0499010405 -0.0112879456
0.0401728488 -0.0283010405 0.0103120544
-0.0138271512 0.0436989595 0.0103120544
0.0329728488 0.0004989595 -0.0076879456
-0.0210271512 0.0364989595 -0.0040879456
-0.0066271512 -0.0139010405 0.0031120544
0.0221728488 0.0076989595 0.0067120544
0.0005728488 -0.0103010405 -0.0076879456
0.0293728488 -0.0535010405 0.0103120544
0.0257728488 0.0328989595 -0.0076879456
-0.0174271512 0.0436989595 0.0031120544
-0.0138271512 0.0400989595 0.0139120544
-0.0102271512 0.0436989595 -0.0256879456
-0.0282271512 0.0436989595 0.0031120544
-0.0246271512 0.0472989595 0.0103120544
0.0293728488 0.0112989595 -0.0076879456
-0.0210271512 0.0472989595 0.0103120544
0.0041728488 0.0400989595 0.0139120544
0.0077728488 -0.0499010405 0.0067120544
0.0041728488 0.0508989595 0.0535120544
0.0509728488 0.0040989595 -0.0004879456
0.0257728488 -0.0427010405 0.0139120544
-0.0102271512 0.0400989595 0.0139120544
0.0257728488 0.0004989595 0.0139120544
0.0149728488 -0.0355010405 0.0031120544
0.0041728488 -0.0247010405 0.0031120544
0.0221728488 0.0004989595 0.0139120544
-0.0066271512 0.0436989595 -0.0004879456
-0.0174271512 0.0364989595 -0.0220879456
-0.0138271512 0.0472989595 0.0067120544
0.0149728488 -0.0139010405 0.0103120544
0.0329728488 0.0436989595 -0.0004879456
0.0113728488 -0.0247010405 0.0067120544
0.0473728488 -0.0031010405 0.0031120544
0.0041728488 -0.0211010405 0.0067120544
0.0005728488 -0.0499010405 0.0103120544
0.0293728488 -0.0535010405 0.0139120544
0.0077728488 -0.0139010405 0.0067120544
0.0113728488 0.0400989595 -0.0076879456
0.0041728488 -0.0499010405 0.0067120544
-0.0318271512 0.0400989595 -0.0076879456
0.0005728488 -0.0247010405 0.0031120544
-0.0138271512 0.0472989595 0.0139120544
0.0041728488 0.0256989595 -0.0076879456
0.0041728488 -0.0211010405 0.0031120544
0.0041728488 -0.0283010405 -0.0004879456
0.0257728488 0.0040989595 -0.0112879456
0.0077728488 -0.0211010405 0.0067120544
-0.0030271512 -0.0247010405 -0.0040879456
0.0041728488 -0.0463010405 -0.0004879456
0.0113728488 -0.0355010405 -0.0004879456
0.0221728488 -0.0031010405 0.0103120544
0.0329728488 0.0436989595 0.0031120544
0.0005728488 0.0400989595 0.0103120544
0.0329728488 0.0328989595 -0.0040879456
0.0113728488 -0.0211010405 0.0103120544
0.0329728488 -0.0571010405 -0.0076879456
0.0257728488 0.0220989595 -0.0040879456
-0.0030271512 0.0508989595 0.0499120544
0.0257728488 -0.0031010405 0.0175120544
0.0401728488 0.0436989595 0.0031120544
0.0257728488 0.0004989595 0.0175120544
0.0113728488 -0.0499010405 0.0067120544
0.0113728488 -0.0391010405 -0.0004879456
0.0257728488 0.0184989595 -0.0004879456
0.0149728488 -0.0103010405 0.0103120544
0.0293728488 -0.0571010405 0.0067120544
0.0077728488 0.0400989595 0.0139120544
0.0509728488 -0.0535010405 -0.0076879456
0.0257728488 -0.0031010405 0.0103120544
0.0437728488 0.0508989595 0.0139120544
0.0473728488 -0.0499010405 0.0067120544
0.0113728488 -0.0319010405 0.0031120544
0.0077728488 0.0004989595 0.0103120544
0.0437728488 -0.0499010405 -0.0148879456
0.0113728488 -0.0139010405 0.0067120544
0.0185728488 -0.0211010405 0.0103120544
0.0041728488 0.0508989595 0.0607120544
0.0077728488 -0.0463010405 0.0067120544
-0.0102271512 0.0184989595 -0.0004879456
0.0041728488 -0.0463010405 0.0067120544
0.0185728488 -0.0355010405 0.0139120544
0.0365728488 -0.0355010405 0.0139120544
0.0005728488 -0.0355010405 0.0031120544
0.0257728488 0.0400989595 0.0211120544
0.0257728488 -0.0607010405 0.0103120544
0.0257728488 -0.0463010405 0.0175120544
0.0113728488 -0.0283010405 0.0031120544
-0.0030271512 0.0328989595 -0.0040879456
0.0221728488 0.0040989595 0.0139120544
-0.0174271512 0.0436989595 -0.0004879456
0.0221728488 0.0364989595 -0.0004879456
0.0149728488 -0.0499010405 0.0067120544
0.0401728488 0.0436989595 -0.0040879456
0.0041728488 -0.0175010405 0.0031120544
0.0113728488 -0.0067010405 0.0103120544
0.0113728488 -0.0319010405 -0.0004879456
-0.0030271512 -0.0247010405 -0.0004879456
0.0185728488 -0.0103010405 0.0103120544
0.0293728488 -0.0031010405 -0.0076879456
0.0005728488 0.0508989595 0.0499120544
0.0113728488 -0.0247010405 0.0031120544
0.0113728488 0.0400989595 0.0103120544
0.0257728488 -0.0067010405 0.0175120544
0.0005728488 0.0508989595 0.0607120544
0.0257728488 -0.0319010405 0.0139120544
0.0041728488 -0.0283010405 0.0031120544
0.0437728488 0.0436989595 0.0067120544
0.0257728488 -0.0067010405 0.0139120544
0.0185728488 0.0040989595 0.0103120544
-0.0174271512 0.0472989595 -0.0004879456
0.0401728488 -0.0499010405 0.0139120544
-0.0318271512 0.0436989595 -0.0040879456
0.0221728488 -0.0031010405 0.0139120544
-0.0246271512 0.0220989595 -0.0004879456
0.0041728488 0.0508989595 0.0499120544
0.0221728488 -0.0571010405 0.0103120544
0.0149728488 -0.0427010405 0.0175120544
0.0257728488 0.0328989595 -0.0040879456
0.0221728488 -0.0139010405 0.0103120544
0.0221728488 -0.0175010405 0.0103120544
0.0221728488 -0.0535010405 0.0139120544
0.0005728488 0.0436989595 0.0175120544
-0.0066271512 0.0328989595 -0.0004879456
-0.0282271512 0.0472989595 0.0031120544
0.0257728488 -0.0535010405 0.0175120544
0.0221728488 -0.0499010405 0.0175120544
0.0221728488 -0.0067010405 0.0103120544
0.0473728488 -0.0391010405 0.0067120544
0.0257728488 -0.0571010405 0.0139120544
0.0437728488 -0.0175010405 -0.0040879456
0.0545728488 0.0472989595 -0.0184879456
0.0221728488 -0.0283010405 0.0139120544
0.0185728488 -0.0499010405 0.0139120544
0.0617728488 0.0436989595 -0.0004879456
0.0221728488 -0.0319010405 0.0139120544
0.0149728488 -0.0463010405 0.0175120544
0.0545728488 -0.0355010405 -0.0148879456
0.0077728488 0.0112989595 -0.0040879456
0.0113728488 0.0400989595 0.0031120544
0.0221728488 -0.0247010405 0.0103120544
0.0113728488 -0.0175010405 0.0067120544
0.0149728488 0.0400989595 0.0067120544
0.0257728488 0.0292989595 -0.0040879456
0.0113728488 0.0436989595 0.0139120544
0.0437728488 -0.0319010405 -0.0112879456
0.0221728488 -0.0211010405 0.0103120544
0.0041728488 0.0184989595 -0.0040879456
0.0509728488 0.0400989595 0.0067120544
0.0257728488 0.0184989595 -0.0040879456
0.0437728488 -0.0139010405 -0.0076879456
0.0041728488 -0.0391010405 -0.0004879456
0.0473728488 -0.0283010405 -0.0004879456
-0.0030271512 0.0364989595 -0.0148879456
0.0221728488 -0.0247010405 -0.0148879456
0.0185728488 -0.0283010405 0.0067120544
0.0221728488 -0.0067010405 0.0139120544
0.0329728488 -0.0391010405 -0.0184879456
0.0365728488 -0.0571010405 0.0175120544
0.0581728488 0.0472989595 -0.0148879456
0.0077728488 0.0508989595 0.0571120544
0.0257728488 0.0040989595 0.0103120544
0.0221728488 -0.0535010405 0.0103120544
0.0221728488 -0.0427010405 0.0175120544
-0.0066271512 0.0508989595 0.0463120544
-0.0030271512 0.0400989595 0.0031120544
-0.0030271512 0.0220989595 -0.0040879456
0.0545728488 -0.0499010405 0.0031120544
0.0365728488 -0.0247010405 -0.0184879456
0.0185728488 0.0076989595 0.0103120544
0.0149728488 -0.0391010405 0.0139120544
0.0257728488 -0.0283010405 0.0103120544
0.0077728488 0.0112989595 -0.0004879456
-0.0066271512 0.0220989595 -0.0040879456
0.0149728488 -0.0391010405 0.0103120544
0.0149728488 0.0400989595 0.0103120544
0.0293728488 0.0184989595 -0.0004879456
0.0077728488 0.0112989595 0.0031120544
0.0149728488 -0.0355010405 0.0103120544
0.0293728488 -0.0319010405 0.0139120544
0.0509728488 -0.0391010405 -0.0040879456
0.0257728488 -0.0247010405 0.0103120544
0.0329728488 0.0472989595 -0.0292879456
-0.0030271512 0.0292989595 -0.0004879456
0.0185728488 -0.0535010405 0.0103120544
0.0509728488 0.0436989595 0.0031120544
-0.0066271512 0.0364989595 -0.0220879456
0.0005728488 0.0220989595 -0.0040879456
0.0185728488 -0.0067010405 0.0103120544
-0.0246271512 0.0364989595 -0.0004879456
0.0293728488 0.0220989595 -0.0004879456
-0.0282271512 0.0472989595 0.0067120544
-0.0066271512 0.0400989595 0.0103120544
-0.0138271512 0.0436989595 0.0031120544
0.0257728488 -0.0175010405 0.0103120544
0.0257728488 0.0292989595 -0.0076879456
0.0113728488 0.0112989595 0.0067120544
0.0365728488 -0.0355010405 -0.0112879456
0.0437728488 0.0040989595 -0.0076879456
0.0257728488 -0.0211010405 0.0103120544
0.0149728488 -0.0499010405 0.0175120544
0.0365728488 -0.0391010405 0.0103120544
0.0149728488 -0.0499010405 0.0031120544
0.0185728488 -0.0103010405 0.0067120544
0.0473728488 -0.0499010405 -0.0112879456
-0.0102271512 -0.0211010405 -0.0040879456
0.0005728488 0.0436989595 0.0211120544
0.0293728488 0.0400989595 -0.0256879456
0.0221728488 -0.0103010405 0.0103120544
0.0005728488 0.0364989595 -0.0040879456
-0.0102271512 0.0436989595 0.0103120544
0.0041728488 -0.0355010405 -0.0004879456
-0.0030271512 0.0148989595 -0.0076879456
0.0221728488 0.0328989595 -0.0076879456
-0.0030271512 -0.0283010405 -0.0148879456
0.0041728488 0.0472989595 0.0607120544
0.0149728488 0.0400989595 0.0175120544
0.0473728488 -0.0247010405 0.0031120544
0.0329728488 0.0400989595 -0.0292879456
0.0077728488 0.0508989595 0.0607120544
0.0329728488 -0.0571010405 0.0139120544
0.0257728488 0.0076989595 0.0103120544
-0.0246271512 0.0436989595 0.0103120544
0.0329728488 -0.0355010405 0.0103120544
-0.0246271512 0.0400989595 0.0103120544
0.0329728488 -0.0499010405 0.0175120544
0.0293728488 -0.0463010405 0.0175120544
0.0293728488 -0.0427010405 0.0175120544
0.0329728488 -0.0355010405 0.0139120544
0.0293728488 -0.0247010405 0.0103120544
0.0293728488 -0.0499010405 0.0175120544
0.0293728488 -0.0571010405 0.0139120544
0.0437728488 -0.0535010405 0.0103120544
0.0221728488 -0.0607010405 0.0139120544
0.0473728488 -0.0319010405 0.0103120544
0.0329728488 -0.0391010405 0.0175120544
-0.0102271512 0.0472989595 0.0067120544
0.0041728488 -0.0535010405 0.0067120544
0.0077728488 0.0436989595 0.0211120544
0.0257728488 -0.0535010405 0.0139120544
0.0437728488 -0.0607010405 0.0103120544
0.0329728488 -0.0391010405 0.0139120544
0.0077728488 0.0040989595 -0.0004879456
0.0077728488 0.0076989595 0.0103120544
0.0221728488 -0.0463010405 0.0139120544
-0.0066271512 0.0436989595 0.0103120544
0.0365728488 -0.0283010405 0.0103120544
-0.0210271512 0.0328989595 0.0031120544
0.0365728488 -0.0355010405 0.0103120544
0.0257728488 -0.0067010405 -0.0184879456
0.0293728488 -0.0175010405 0.0103120544
0.0257728488 -0.0067010405 0.0067120544
0.0113728488 0.0436989595 0.0103120544
0.0149728488 -0.0175010405 0.0067120544
0.0149728488 0.0112989595 0.0067120544
0.0401728488 0.0004989595 0.0103120544
0.0113728488 0.0112989595 0.0031120544
0.0005728488 0.0400989595 0.0211120544
0.0257728488 -0.0427010405 0.0175120544
0.0257728488 0.0076989595 0.0139120544
0.0293728488 0.0076989595 0.0139120544
-0.0030271512 0.0400989595 0.0067120544
0.0329728488 -0.0427010405 0.0175120544
0.0293728488 -0.0139010405 0.0067120544
-0.0102271512 0.0436989595 0.0067120544
0.0545728488 -0.0391010405 -0.0040879456
0.0473728488 -0.0535010405 0.0103120544
0.0365728488 0.0364989595 -0.0184879456
0.0293728488 -0.0103010405 0.0067120544
0.0221728488 0.0400989595 -0.0184879456
0.0185728488 -0.0571010405 0.0103120544
0.0041728488 0.0436989595 0.0103120544
-0.0102271512 0.0220989595 0.0031120544
-0.0138271512 0.0220989595 0.0031120544
-0.0066271512 0.0256989595 0.0031120544
0.0221728488 0.0220989595 -0.0040879456
0.0041728488 -0.0391010405 0.0031120544
0.0329728488 -0.0535010405 0.0175120544
0.0401728488 -0.0031010405 -0.0076879456
0.0293728488 -0.0535010405 0.0175120544
0.0509728488 -0.0571010405 -0.0004879456
0.0077728488 0.0436989595 0.0175120544
0.0257728488 -0.0283010405 0.0139120544
0.0041728488 -0.0499010405 0.0031120544
0.0005728488 -0.0319010405 -0.0004879456
0.0041728488 -0.0319010405 0.0031120544
0.0113728488 0.0364989595 0.0067120544
0.0365728488 -0.0067010405 0.0139120544
0.0293728488 0.0220989595 -0.0076879456
0.0329728488 -0.0175010405 -0.0148879456
0.0185728488 -0.0319010405 0.0139120544
0.0221728488 0.0328989595 -0.0040879456
0.0041728488 0.0400989595 0.0211120544
-0.0066271512 0.0400989595 0.0139120544
-0.0066271512 0.0400989595 0.0067120544
0.0149728488 0.0364989595 0.0067120544
0.0401728488 -0.0319010405 0.0103120544
0.0473728488 -0.0427010405 0.0103120544
0.0149728488 0.0112989595 0.0103120544
-0.0030271512 0.0472989595 0.0139120544
-0.0030271512 0.0400989595 0.0103120544
0.0509728488 0.0436989595 -0.0328879456
0.0365728488 -0.0247010405 0.0067120544
0.0401728488 -0.0247010405 0.0031120544
0.0365728488 -0.0535010405 0.0139120544
0.0401728488 0.0436989595 0.0067120544
0.0401728488 -0.0535010405 0.0103120544
0.0329728488 -0.0463010405 0.0139120544
0.0005728488 0.0292989595 -0.0076879456
0.0545728488 -0.0499010405 0.0067120544
-0.0066271512 0.0364989595 -0.0004879456
0.0041728488 -0.0247010405 -0.0004879456
0.0509728488 -0.0571010405 -0.0112879456
0.0401728488 -0.0355010405 0.0103120544
0.0185728488 0.0400989595 0.0175120544
0.0005728488 -0.0355010405 -0.0040879456
-0.0102271512 0.0256989595 0.0031120544
0.0437728488 -0.0355010405 0.0103120544
0.0257728488 0.0184989595 -0.0112879456
0.0437728488 -0.0391010405 0.0103120544
0.0293728488 -0.0067010405 0.0067120544
0.0041728488 0.0472989595 0.0139120544
0.0509728488 -0.0571010405 0.0103120544
0.0437728488 0.0436989595 0.0139120544
0.0329728488 0.0040989595 -0.0004879456
-0.0066271512 0.0400989595 0.0031120544
0.0077728488 0.0472989595 0.0139120544
0.0185728488 0.0400989595 0.0067120544
-0.0138271512 0.0328989595 -0.0112879456
0.0365728488 -0.0391010405 0.0139120544
0.0509728488 -0.0499010405 0.0067120544
0.0041728488 0.0472989595 0.0103120544
0.0329728488 -0.0211010405 0.0067120544
0.0509728488 0.0400989595 -0.0292879456
0.0509728488 -0.0535010405 0.0067120544
0.0509728488 -0.0463010405 0.0103120544
0.0077728488 -0.0355010405 -0.0040879456
0.0437728488 -0.0427010405 0.0103120544
0.0005728488 -0.0571010405 0.0067120544
-0.0138271512 0.0220989595 -0.0004879456
-0.0102271512 0.0220989595 -0.0004879456
0.0473728488 0.0400989595 -0.0328879456
0.0005728488 0.0364989595 -0.0076879456
0.0113728488 0.0472989595 0.0247120544
0.0545728488 -0.0391010405 0.0067120544
0.0005728488 0.0328989595 -0.0040879456
-0.0066271512 0.0292989595 0.0031120544
0.0329728488 0.0004989595 0.0175120544
0.0509728488 -0.0391010405 0.0103120544
-0.0030271512 0.0400989595 -0.0040879456
0.0365728488 -0.0247010405 0.0031120544
0.0365728488 -0.0463010405 0.0139120544
0.0293728488 -0.0067010405 0.0175120544
0.0077728488 0.0472989595 0.0103120544
0.0365728488 0.0400989595 0.0031120544
0.0437728488 -0.0391010405 0.0067120544
0.0473728488 0.0004989595 -0.0076879456
0.0365728488 -0.0175010405 0.0067120544
0.0545728488 -0.0535010405 0.0103120544
0.0581728488 0.0436989595 -0.0112879456
0.0401728488 -0.0499010405 0.0103120544
0.0401728488 -0.0031010405 0.0139120544
0.0221728488 0.0148989595 -0.0112879456
0.0473728488 -0.0283010405 0.0067120544
-0.0030271512 0.0292989595 -0.0040879456
0.0329728488 -0.0139010405 0.0031120544
0.0545728488 -0.0535010405 0.0067120544
0.0545728488 -0.0355010405 0.0067120544
0.0401728488 -0.0463010405 0.0139120544
0.0293728488 0.0220989595 -0.0040879456
-0.0030271512 0.0364989595 -0.0004879456
0.0437728488 -0.0319010405 0.0103120544
0.0005728488 0.0400989595 -0.0040879456
0.0437728488 -0.0499010405 0.0103120544
0.0509728488 -0.0355010405 0.0067120544
0.0473728488 -0.0355010405 0.0103120544
0.0437728488 0.0400989595 0.0139120544
0.0185728488 0.0472989595 0.0175120544
0.0005728488 0.0436989595 0.0067120544
0.0437728488 -0.0031010405 -0.0112879456
0.0509728488 -0.0355010405 0.0031120544
0.0257728488 0.0400989595 0.0067120544
0.0401728488 0.0508989595 0.0139120544
-0.0030271512 0.0364989595 -0.0040879456
0.0365728488 -0.0427010405 0.0139120544
0.0077728488 0.0112989595 0.0067120544
0.0149728488 -0.0463010405 0.0067120544
0.0041728488 0.0472989595 0.0247120544
0.0185728488 0.0400989595 0.0139120544
0.0005728488 0.0472989595 0.0067120544
0.0581728488 -0.0535010405 0.0067120544
0.0149728488 0.0472989595 0.0175120544
-0.0066271512 0.0328989595 0.0031120544
0.0401728488 -0.0391010405 0.0067120544
0.0365728488 -0.0499010405 0.0103120544
0.0437728488 -0.0535010405 0.0139120544
0.0545728488 -0.0427010405 0.0067120544
-0.0066271512 0.0364989595 0.0067120544
0.0437728488 -0.0283010405 0.0031120544
0.0437728488 -0.0067010405 0.0031120544
0.0329728488 0.0040989595 0.0139120544
0.0401728488 -0.0175010405 -0.0004879456
0.0401728488 -0.0427010405 0.0067120544
-0.0066271512 0.0292989595 -0.0004879456
0.0221728488 0.0112989595 0.0067120544
0.0221728488 0.0436989595 0.0067120544
0.0185728488 0.0436989595 0.0211120544
0.0509728488 -0.0319010405 0.0031120544
0.0257728488 0.0436989595 0.0067120544
0.0617728488 0.0472989595 -0.0148879456
-0.0030271512 0.0328989595 -0.0004879456
-0.0030271512 0.0256989595 -0.0184879456
0.0545728488 -0.0355010405 0.0103120544
0.0005728488 0.0256989595 -0.0076879456
0.0041728488 0.0472989595 0.0067120544
0.0041728488 -0.0355010405 -0.0040879456
-0.0102271512 0.0292989595 0.0031120544
0.0293728488 -0.0283010405 0.0139120544
0.0185728488 0.0436989595 0.0139120544
0.0365728488 -0.0247010405 0.0103120544
0.0401728488 -0.0247010405 0.0067120544
0.0077728488 -0.0247010405 0.0067120544
-0.0102271512 0.0328989595 0.0103120544
-0.0030271512 0.0256989595 -0.0004879456
0.0149728488 0.0004989595 0.0067120544
0.0077728488 0.0220989595 -0.0040879456
-0.0066271512 0.0292989595 0.0067120544
0.0293728488 0.0436989595 -0.0004879456
0.0293728488 0.0400989595 0.0031120544
-0.0030271512 0.0472989595 0.0067120544
0.0509728488 -0.0283010405 0.0031120544
-0.0102271512 0.0472989595 0.0175120544
0.0581728488 0.0436989595 -0.0076879456
0.0437728488 -0.0247010405 0.0031120544
-0.0174271512 0.0472989595 0.0139120544
0.0473728488 0.0436989595 -0.0292879456
-0.0066271512 0.0472989595 0.0139120544
0.0545728488 -0.0319010405 -0.0004879456
0.0545728488 0.0400989595 -0.0112879456
0.0329728488 0.0004989595 0.0139120544
0.0545728488 -0.0391010405 -0.0076879456
0.0041728488 0.0400989595 -0.0112879456
0.0401728488 -0.0355010405 0.0139120544
0.0581728488 -0.0391010405 0.0031120544
-0.0030271512 0.0472989595 0.0175120544
0.0293728488 0.0436989595 0.0175120544
0.0293728488 0.0400989595 0.0067120544
0.0509728488 -0.0391010405 0.0031120544
-0.0066271512 0.0436989595 0.0175120544
0.0329728488 0.0436989595 0.0139120544
0.0437728488 -0.0571010405 0.0139120544
0.0545728488 -0.0319010405 0.0031120544
0.0257728488 0.0472989595 0.0211120544
-0.0066271512 0.0472989595 0.0175120544
0.0401728488 0.0436989595 0.0103120544
-0.0102271512 0.0436989595 0.0175120544
0.0365728488 0.0436989595 0.0103120544
