ply
format ascii 1.0
comment Created by Open3D
element vertex 1549
property double x
property double y
property double z
end_header
0.00814902 -0.0212807 -0.029475
0.0101761 -0.0163917 -0.0371714
0.0181958 -0.0205585 -0.033875
0.017286 0.0113873 -0.0491625
0.0156221 0.00252268 -0.0487071
-0.0025118 0.00332687 -0.0410636
0.0218808 -0.0195156 -0.0347833
-0.00454279 0.00774956 -0.0394667
0.0342459 -0.00648326 -0.0426
0.0245907 0.00594025 -0.049045
0.0334813 -0.00838927 -0.0409857
0.0168502 0.0365645 -0.03525
0.00761781 0.011388 -0.0469222
0.0209753 -0.0213415 -0.0330833
-0.00137643 0.0130336 -0.041575
0.00420422 -0.00625997 -0.0425
0.0136347 0.0169663 -0.04767
0.0111098 -0.0235621 -0.02915
0.0387553 -0.00214642 -0.0416333
0.014699 -0.0236928 -0.02915
-0.00165703 -0.0103275 -0.0348143
0.033531 0.0265093 -0.0401429
0.0120918 -0.0208055 -0.0326
-0.00418068 0.0211809 -0.0371429
0.0192551 -0.02349 -0.0307
0.0100947 0.025758 -0.0422385
0.0209631 -0.0218374 -0.0325
-0.00128294 -0.000365925 -0.04075
0.0320183 0.00685871 -0.04675
0.0246207 0.0257913 -0.0439125
0.0127833 -0.0147922 -0.0391167
0.0271004 0.0194275 -0.0461
0.0164425 -0.0201792 -0.0339
0.0165215 -0.0158008 -0.0395
0.0317546 0.0167438 -0.0453462
0.0245734 -0.0182821 -0.0355909
0.0271542 -0.0180347 -0.0354667
0.00231614 -0.00808902 -0.03975
0.0146477 -0.0182624 -0.0363714
0.0314352 -0.0146025 -0.03795
0.0308528 0.0219594 -0.0434889
0.0235566 -0.0179197 -0.0361333
0.0414613 0.00246317 -0.0407
0.0165525 -0.0179953 -0.0371
-0.00317936 0.0122643 -0.03991
-0.000167319 -0.00978516 -0.0368
0.0146188 0.0132012 -0.04845
0.0255581 -0.0105517 -0.0422429
0.0228125 0.000463213 -0.0483176
0.0118799 0.0249511 -0.043
0.028183 0.00327159 -0.04759
0.018231 -0.0179778 -0.0372
0.00468484 0.0176123 -0.0444
0.0245143 0.030724 -0.0402
0.00496952 -0.0152342 -0.0361
0.00745796 -0.0135208 -0.03885
0.0267407 0.0252415 -0.0432
0.0200835 0.0148901 -0.0488167
0.00931441 -0.0237469 -0.02745
0.00845622 -0.0226941 -0.0282833
0.0102797 -0.0235681 -0.02838
0.0174538 -0.0203386 -0.03398
0.021822 -0.0216841 -0.0326333
0.0415723 0.0230538 -0.03622
0.0344918 -0.00845179 -0.0401167
-0.0071604 0.00226524 -0.035825
0.0324961 -0.00903227 -0.0408
0.039517 0.0209581 -0.0397
0.0108176 -0.0236365 -0.0288
0.0173525 -0.0231409 -0.030525
0.0139797 -0.0125783 -0.0415667
0.0191655 -0.0171131 -0.038025
0.030041 0.034729 -0.0338667
0.00962064 0.00591303 -0.0478
0.036235 0.0230258 -0.0400667
0.0192407 -0.0208574 -0.033625
0.0209627 -0.00574324 -0.0466
0.000236799 -0.00130054 -0.0417786
0.0290387 -0.0129549 -0.0402909
0.0182117 -0.0229378 -0.0309909
0.041169 0.00690394 -0.0414
0.00840456 -0.0209566 -0.03022
0.00377872 0.000502158 -0.0445437
0.020036 -0.0229667 -0.03135
0.0101847 -0.0149303 -0.0385
-0.00679085 -0.00296205 -0.0345833
-0.00691163 0.0158159 -0.035575
0.0191549 -0.0205149 -0.0341
0.000419068 0.0167165 -0.041725
0.036916 0.00681356 -0.0443
0.0371171 0.0212096 -0.0410083
-0.00428708 -0.00487361 -0.0366
0.0432648 0.0185664 -0.03725
-0.00348286 0.0140441 -0.0393167
0.0164843 -0.02089 -0.0328167
0.0407843 0.014053 -0.040925
0.00662127 0.0272811 -0.04308
-0.006781 0.0131381 -0.0363455
0.0200214 -0.0205084 -0.0341333
0.0382012 0.0167896 -0.04304
0.0155176 -0.0202243 -0.0337571
0.0191718 0.0247796 -0.0443077
0.0290474 0.0104687 -0.0480538
-0.00355178 -0.00864267 -0.0349333
0.00834615 -0.0146893 -0.0381833
0.00837803 -0.00728649 -0.04335
0.0374542 0.000281437 -0.0432
0.0313285 -0.00810503 -0.0424
0.0110599 -0.00865396 -0.0431167
0.0351588 -0.0120145 -0.0371333
0.0416802 0.0265101 -0.034525
0.0235159 0.01818 -0.0478
0.00905737 -0.0232998 -0.0279
0.020056 -0.00886716 -0.0441
0.0172452 -0.0150047 -0.0403333
0.0452606 0.016488 -0.0373875
0.0236116 -0.0160734 -0.038525
-0.00181138 -0.0114052 -0.033
0.0110047 -0.023087 -0.02955
0.0372616 -0.00847058 -0.0383625
0.0244665 -0.00898113 -0.04336
0.00512385 -0.012566 -0.0379
0.00548701 0.0131852 -0.0458143
-0.00141886 -0.00924611 -0.036375
0.0273633 -0.0112878 -0.0413667
0.0112188 -0.0227525 -0.03
0.0320717 0.0268963 -0.04045
-0.00129637 -0.0074671 -0.0381143
0.00297155 -0.0102149 -0.0382455
0.00405064 -0.00817372 -0.0406333
0.011984 -0.0228407 -0.0301111
0.0263787 0.00692359 -0.0487875
0.0163565 0.0222058 -0.04564
0.00940241 -0.0189648 -0.0344
0.0129379 -0.0231854 -0.0297
0.0209943 -0.0208574 -0.033625
0.0299077 0.0322045 -0.0365
0.00142382 0.00839982 -0.0442
0.0154192 -0.0232065 -0.0296
0.0244537 -0.000274678 -0.0478364
0.0372449 0.0141067 -0.0437417
0.0146134 -0.0166275 -0.0383273
0.00628343 -0.00788327 -0.0423
0.0164391 -0.022885 -0.0303111
0.0382886 -0.0014425 -0.0422333
0.00664314 0.0257098 -0.0421824
0.0272769 -0.0157493 -0.0384143
0.038952 0.00411987 -0.04299
0.0318611 0.0311122 -0.0365667
-0.00519343 0.00233087 -0.0383222
-0.00415043 0.0059835 -0.0398455
0.0238334 -0.0204282 -0.03325
0.0174501 -0.0227319 -0.03088
0.0290388 -0.00213533 -0.04715
0.0283697 0.0252462 -0.0423
-0.00128978 -0.0107536 -0.03445
0.027265 -0.0128749 -0.04071
0.00920763 -0.01842 -0.03485
0.0209105 -0.0205246 -0.03405
0.00933779 -0.0217876 -0.0300375
0.0289863 -0.00931422 -0.04177
0.0317445 0.0121724 -0.0466455
0.0369984 -0.00310809 -0.0426
0.0201242 -0.0216285 -0.0327
0.0164639 -0.0153918 -0.03985
0.00940683 -0.0230545 -0.02845
0.0361404 0.0209298 -0.0415
0.00979658 -0.0231751 -0.0285
0.0113082 -0.0127018 -0.0406
0.00917526 -0.0203591 -0.03195
0.0100559 -0.0159275 -0.03762
0.0137968 -0.0227134 -0.0301
0.0300648 0.0294541 -0.0394
0.0135728 -0.0148477 -0.0394286
0.0146508 -0.0227008 -0.0300714
0.00802625 0.014266 -0.046775
0.016351 -0.0220197 -0.0311833
-0.00310622 0.0219632 -0.03805
0.00758848 -0.0100928 -0.04065
0.0210064 0.00124884 -0.04858
0.0420785 -0.00280798 -0.03865
0.0379417 -0.00917816 -0.03725
0.0138235 -0.0207474 -0.0329
0.00743052 -0.0168978 -0.0359
0.0190724 -0.00995947 -0.0433625
-0.00509199 0.00761771 -0.0389714
0.0309512 -0.000389479 -0.046325
-0.00546383 0.0131812 -0.0377333
0.0342469 -0.00825451 -0.0406
0.0280924 0.0121696 -0.0481
0.0044845 -0.0150039 -0.036
0.0166585 0.0218397 -0.0460667
0.0091568 0.00957507 -0.04766
0.0165373 -0.0224399 -0.0308
0.0028487 -0.00317271 -0.0429385
0.0217924 0.024811 -0.0445067
0.0192118 -0.00789535 -0.044925
0.0179644 -0.0222961 -0.0315
0.0324487 0.0007526 -0.0460333
0.00835727 -0.0123324 -0.0404333
0.00736839 -0.00401026 -0.0448125
0.0183007 -0.02192 -0.0319818
-0.00623669 0.00187783 -0.0369
0.0199694 0.015484 -0.0487
0.0208961 -0.0183133 -0.0365222
0.0192078 -0.0220278 -0.0321
0.0155161 0.000482687 -0.0482438
0.0200123 -0.0220746 -0.0321667
0.0314187 0.00454573 -0.0469
0.0118694 -0.00494058 -0.0457727
0.0351772 0.0113753 -0.04516
0.0209141 -0.0221728 -0.0321
0.0307488 -0.00550739 -0.04518
0.0245914 -0.0160892 -0.038425
0.00928658 0.00681305 -0.0476667
0.0218033 -0.0221728 -0.0321
0.0182314 0.0222172 -0.0464444
0.0435392 -0.00212863 -0.0375222
0.00294073 -0.0146998 -0.0354727
0.00377092 0.0121664 -0.0447375
0.0280227 -0.0172113 -0.03635
0.0422053 0.00426816 -0.0406
0.0314945 0.00596433 -0.047
0.0208688 -0.00737154 -0.04533
0.0391396 0.0195414 -0.04042
0.0146299 0.0104373 -0.049052
-0.00541534 -0.000497462 -0.03774
0.0101296 -0.00596519 -0.0448727
0.0182091 0.013963 -0.0489824
0.0433912 0.00321063 -0.03926
0.0146268 0.00775866 -0.04907
0.0317559 -0.00772468 -0.04285
0.0422331 0.00147255 -0.0397
0.0117086 0.0224351 -0.04495
0.024562 -0.0129827 -0.04108
0.0236803 0.031491 -0.03925
0.0398242 0.0239371 -0.0373429
-0.0023722 0.00680539 -0.0411437
0.00604547 0.00425764 -0.046
0.00922125 -0.0225281 -0.0291
0.00994635 0.0168043 -0.0467818
0.0282279 0.00868212 -0.0483625
-0.000640207 0.0230325 -0.0388889
0.016419 -0.0129283 -0.0419286
-0.00627131 -0.00319855 -0.0349667
0.00995088 -0.0224062 -0.0297
0.0101966 -0.0220141 -0.0302
0.0128932 -0.0138239 -0.0401071
0.00842895 -0.0218341 -0.0292143
-0.00717998 0.0168198 -0.0347714
-0.00154864 -0.0110768 -0.0337375
0.0109965 -0.0221592 -0.0303714
-0.00440498 0.0140912 -0.03855
0.0119342 -0.0222302 -0.0305667
0.000783694 -0.0069259 -0.0395
0.0444281 0.00770733 -0.0384625
0.0137534 -0.02199 -0.0310286
0.0299076 0.033839 -0.0346857
-0.00509202 -0.00747207 -0.03446
0.0461757 0.015 -0.0377077
0.0135056 -0.0197108 -0.0344
-0.00717135 0.00140881 -0.0356667
0.017311 -0.00227567 -0.04766
0.015022 -0.0222234 -0.0306
0.00232618 0.00230885 -0.0442
0.0407875 -0.00553023 -0.03818
0.0218951 -0.0067646 -0.04571
0.0159766 0.0145626 -0.0487
0.0128544 -0.0200928 -0.0338444
0.0326227 -0.00039243 -0.0456375
0.0138101 0.0248163 -0.0436133
0.0330303 0.00974648 -0.0459
0.0173572 -0.0218032 -0.0318333
0.026326 -0.0191142 -0.0345571
-0.0103355 0.00334974 -0.0338667
0.0237437 -0.00134232 -0.0476818
0.0235743 0.0284193 -0.04167
0.00596954 0.0139185 -0.0460333
0.0083337 -0.0222062 -0.02875
0.00567997 0.0022394 -0.0457643
0.00377056 0.00139831 -0.04475
0.0363767 0.0321714 -0.033875
0.00900936 -0.0220867 -0.0295667
-0.0064292 0.00571762 -0.0377
0.0110796 -0.021708 -0.03086
0.0191731 -0.0215642 -0.0326
0.00834971 0.0238172 -0.0435333
-0.000644033 -0.00760774 -0.0383
0.0429339 0.0214863 -0.036
0.0372609 0.00232076 -0.0437
0.0295656 -0.0117655 -0.0406
0.00288465 0.0131132 -0.044375
0.00561711 -0.0148779 -0.0366889
0.020133 -0.0212961 -0.0331
0.0218874 0.00327512 -0.0487062
0.0426861 0.00142841 -0.0392286
0.0173751 -0.00299685 -0.04755
0.0227195 -0.0215692 -0.032575
0.0334811 0.0256368 -0.0407889
0.014961 -0.0162601 -0.03885
0.0272078 0.033422 -0.0362
0.035329 0.0167368 -0.0443867
0.0146623 -0.0076931 -0.0446615
0.00837426 -0.0111699 -0.0406938
0.00563216 0.0212784 -0.0436
0.0101522 0.00590661 -0.0479
0.0236446 -0.0190752 -0.03465
0.0164591 0.0195025 -0.04719
-0.00273133 -0.00322728 -0.0386
0.00397974 -0.0128672 -0.037175
0.0123321 -0.0215097 -0.0316
0.0254824 0.00594844 -0.04892
0.0181921 -0.012988 -0.041975
0.00432012 0.0141461 -0.045
0.0138237 -0.0194681 -0.0348167
-0.00210532 -0.00806054 -0.0371
0.00488507 -0.010876 -0.03886
0.0128608 -0.021274 -0.0320571
0.0191134 -0.0146638 -0.0407875
-0.000934587 -0.0131162 -0.0324
0.0182562 -0.012376 -0.04225
-0.00145844 -0.00662473 -0.0383133
-0.00527018 0.00150536 -0.0383778
0.0182804 -0.0154765 -0.0399571
0.00563012 -0.00772028 -0.0421
0.0182201 -0.0163404 -0.0389857
0.0137379 -0.0213188 -0.0320143
0.0155239 -0.0213273 -0.0319714
-0.00848273 0.014945 -0.0346375
0.0182267 -0.0184594 -0.0365375
0.0163883 -0.0213559 -0.03212
0.0173246 -0.0213708 -0.0323
0.0173546 -0.0209999 -0.0329
0.0293754 0.0198506 -0.045
0.0181832 -0.0211472 -0.03292
0.0109482 -0.0212937 -0.0314
0.0182494 -0.00886716 -0.0441
0.0254129 -0.0146183 -0.0399
0.00297266 -0.0111722 -0.0374556
0.0263489 -0.00213005 -0.0473812
0.0200038 -0.00387078 -0.047475
0.0398754 0.0194111 -0.0399125
0.0248037 -0.0106441 -0.0423
0.0441611 0.00589445 -0.0388
0.00302464 -0.0021469 -0.0435
0.0368339 -0.0120459 -0.0361667
0.0227896 -0.0210143 -0.0329875
0.0146518 0.0114184 -0.048915
0.0155922 0.0286943 -0.04104
0.0204985 0.0179823 -0.0477
-0.000628687 0.0166903 -0.0407333
0.0353679 -0.0138624 -0.0356833
0.0256155 0.0251836 -0.044
0.0253808 -0.015509 -0.03909
0.0146441 -0.0201668 -0.0338714
0.0263607 0.0194167 -0.0464
0.0382693 0.0303614 -0.03365
0.0364593 0.019668 -0.0422
0.0275167 0.0178381 -0.04675
0.0308075 -0.0146514 -0.0382375
0.02719 0.0302384 -0.0401818
0.0340507 -0.0090288 -0.0398
0.0137467 -0.0112844 -0.0421643
-0.000716476 -0.0109764 -0.0347
0.00986968 -0.0214505 -0.0306
0.0314187 0.00925924 -0.0469
0.0102076 -0.0212213 -0.0311167
0.0119251 -0.0191769 -0.03474
0.0111653 -0.0209689 -0.03202
0.0263789 -0.00748061 -0.0445091
0.0190733 -0.00847139 -0.0444538
0.0202091 -0.0195801 -0.0351
0.0118706 -0.0211097 -0.03208
0.0418478 -0.00606675 -0.0366667
0.0365165 0.00137092 -0.0440667
0.0383362 0.0122254 -0.0430833
0.0109202 -0.0195082 -0.03415
0.0227272 0.0140117 -0.0487875
0.0185284 -0.0209015 -0.0334
0.00564817 0.00318289 -0.0458077
0.0309074 -0.0077812 -0.043
0.0245776 -0.0200295 -0.0337
0.0226678 0.0219135 -0.0460667
-0.00701746 0.0186867 -0.03466
0.0218966 -0.0207984 -0.0335
0.0300182 -0.0148266 -0.038475
0.0218471 -0.0173672 -0.0374125
0.0236754 0.0324467 -0.0377333
0.0245434 0.0142268 -0.0485556
0.0173042 -0.00997774 -0.0433429
0.00843003 -0.0118625 -0.0406286
0.025616 -0.0149624 -0.0395667
0.00927431 -0.0209381 -0.0310333
0.0422636 0.024852 -0.0352333
0.0418017 0.014043 -0.0401667
0.0318201 -0.0157141 -0.0367
0.0462168 0.0169795 -0.0366
-0.00249463 0.0149308 -0.040125
0.0102065 -0.0207299 -0.03194
0.0362419 0.00679267 -0.0445917
0.0105728 0.0209471 -0.0451
0.0450053 0.00594307 -0.0379667
0.0237106 -0.0163807 -0.0381
0.00660476 0.00320339 -0.0462611
0.0128176 -0.0207522 -0.032875
0.0092023 -0.00333974 -0.04586
0.0147109 -0.0207538 -0.0328667
0.0374233 -0.000478927 -0.0430833
0.0229056 -0.0115068 -0.0423
0.0328689 -0.0148604 -0.0367167
0.0102716 -0.0144269 -0.0389
0.0354168 0.0204289 -0.0421111
0.0155925 -0.0207522 -0.032875
0.0007629 0.0167567 -0.0421667
0.0278371 -0.0153149 -0.0388
0.0218704 -0.0138157 -0.0408545
0.0334738 0.0284028 -0.0381714
0.0223982 -0.0206311 -0.0335
0.00188064 0.002316 -0.0439
0.00567892 -0.00384087 -0.0443
0.0291097 -0.00881855 -0.0421333
-0.000761963 -0.0122491 -0.0329667
-0.00121197 -0.00573161 -0.03886
0.0378583 0.0336268 -0.0316
-0.00420731 -0.00927657 -0.0336556
0.0254761 -0.00932888 -0.0429929
0.013717 0.0227733 -0.04525
-0.00093589 -0.0141495 -0.03225
0.00134738 0.00418506 -0.0442833
0.0182417 0.015792 -0.0485533
0.0361295 -0.012653 -0.0362
0.0109989 0.0104413 -0.048075
0.0272605 -0.0138447 -0.0401267
0.0254571 0.0301017 -0.0407727
0.0110664 -0.0203288 -0.03298
0.00198083 0.00499912 -0.044525
0.0273076 -0.0166314 -0.0374
0.0437488 0.00232756 -0.0384667
0.0120324 -0.0204521 -0.033125
0.0114667 0.021841 -0.0451
0.0182713 -0.0200337 -0.0345714
0.0183243 -0.0118851 -0.0425
0.0191071 -0.0200528 -0.0346571
0.0127253 0.0270867 -0.0423
0.0119512 0.0159177 -0.0475733
0.00212566 -0.010438 -0.03755
0.0209426 -0.0200618 -0.0345167
0.0228147 -0.0201351 -0.0337667
0.00486281 -0.01467 -0.0364727
0.0100825 0.0221033 -0.04445
0.0290998 -0.0141733 -0.03946
0.0164206 0.000464393 -0.0484947
-0.0055965 -0.00462884 -0.03525
-0.00844073 -0.000317347 -0.0336
0.031708 0.00322365 -0.0464211
0.020957 -0.0174459 -0.0374833
0.0183494 -0.0176151 -0.03762
0.0248 -0.0123674 -0.0414
0.0146641 0.00498756 -0.04884
0.029983 -0.0169794 -0.0359
0.0363344 -0.013041 -0.0357875
0.021878 -0.0102222 -0.0430313
0.0272335 -0.0172363 -0.0365667
0.00466764 -0.000396135 -0.04475
0.0362166 0.0203229 -0.0418364
-0.00386213 -0.00460768 -0.0371
0.0127819 -0.0192824 -0.0348
0.000924269 -0.00590399 -0.040275
-8.88714e-05 -0.0122294 -0.0338667
0.0392094 0.005987 -0.0430875
0.00855807 -0.020621 -0.0309
0.0172797 0.0242668 -0.04405
0.00836818 -0.0204058 -0.0311333
0.0101643 -0.0201124 -0.032925
0.00504596 0.000642518 -0.0451714
0.0048532 -0.00301491 -0.0442889
0.0263629 -0.00933884 -0.0428
0.0370426 0.000552842 -0.04356
0.0324587 -0.0146345 -0.03722
0.0137568 -0.0190452 -0.035325
0.0425701 0.00685499 -0.0402333
0.0119524 -0.0199411 -0.0338375
0.0173247 -0.0184988 -0.0364143
0.00352558 -0.0112985 -0.0377667
0.0255278 -0.00479783 -0.0463937
-0.00750119 0.0104456 -0.0362
0.0224523 -0.0181615 -0.03615
0.0291816 -0.00313282 -0.0467429
0.0173514 -0.0199501 -0.03445
0.025388 0.00242087 -0.0484875
0.00562549 -0.00493535 -0.0437125
-0.000871293 0.009472 -0.0421273
0.00450988 -0.00970428 -0.039525
0.0102069 -0.0155261 -0.03804
0.00132907 -0.0057013 -0.0407375
0.0102956 0.0242687 -0.04308
0.0267705 -0.0176978 -0.036
-0.00664024 -0.000431034 -0.0362875
0.0370838 -0.0128229 -0.0355286
0.0104808 -0.0198694 -0.03355
0.0220687 -0.0178047 -0.0368
0.00322855 -5.98573e-05 -0.0442
0.0263487 -0.0153999 -0.039025
0.0422129 0.0173161 -0.0389
0.00290426 -0.00130733 -0.0437188
0.0131387 -0.0197201 -0.03435
0.0155695 -0.0195241 -0.0347375
0.0172594 -0.0195755 -0.03486
-0.00545074 -0.00399564 -0.0356833
0.0173441 0.0166848 -0.0481684
0.0209853 -0.0196128 -0.034925
0.00935208 -0.00483463 -0.04524
-0.00785495 0.000553648 -0.0347417
0.0320398 0.00774235 -0.0466875
0.0137185 -0.00213303 -0.04725
0.0310767 0.00394812 -0.046775
0.0173002 0.012253 -0.0490875
0.0299482 -0.0102153 -0.0408833
0.0413652 -0.000416712 -0.0398
-0.00519508 0.00424751 -0.0382889
0.0173192 0.00690839 -0.0493
0.0110922 0.0157694 -0.0472938
0.0329547 -0.00341497 -0.045
0.00925776 -0.0196833 -0.0332
0.0263604 0.0311969 -0.0394333
0.00751888 -0.016415 -0.03637
0.00665269 -0.00832829 -0.04194
0.0302793 0.00863631 -0.0477
0.00924466 -0.0193168 -0.0338333
0.0273074 0.0267123 -0.0419091
0.00808741 -0.016088 -0.0369
0.0101195 -0.0195007 -0.03392
0.0111194 -0.0190665 -0.0347556
0.0174278 -0.0190986 -0.0354833
0.015371 -0.0115643 -0.0423
0.0290789 -0.0173932 -0.035625
0.0129086 -0.0180916 -0.0362
0.0415608 0.0254159 -0.03545
0.0182576 -0.0191068 -0.0356625
0.000855637 0.0214588 -0.0403
0.00252529 -0.0132896 -0.036
0.0164683 -0.0190451 -0.035325
0.0299944 -0.0158156 -0.0374444
0.0227699 -0.0191787 -0.0347444
0.0237534 -0.0195051 -0.0341667
0.0235658 -0.0168021 -0.03758
0.0243687 -0.019499 -0.0342
0.0299986 0.0176562 -0.0456923
0.0336003 0.00138434 -0.0457
0.00198178 0.00860077 -0.044475
0.0197218 -0.0180128 -0.037
0.0112334 0.021193 -0.0451818
0.0246161 -0.0191459 -0.0346222
0.0246028 0.00497887 -0.049
0.0164156 0.0337951 -0.0358727
0.026331 0.0176794 -0.0473357
0.00165113 0.00965063 -0.0441
-0.00993966 0.0123452 -0.032975
0.025477 -0.01915 -0.0346273
0.0065635 0.006877 -0.0465
0.0118802 -0.0174468 -0.0365222
0.0156265 -0.0143295 -0.040675
0.0100994 -0.0138573 -0.03935
0.0311055 0.0205799 -0.0440333
0.0434655 0.00859154 -0.0393083
0.00391641 -0.0076337 -0.0410667
0.0292152 -0.0151114 -0.0385667
0.00466371 -0.00790787 -0.041275
0.0345585 -0.00575149 -0.04285
0.0335764 0.00959392 -0.0457667
0.00263111 -0.015061 -0.0350333
0.0419129 0.023223 -0.0359
0.00925299 0.0140477 -0.04713
0.0081051 -0.017851 -0.0351
-0.00515543 0.000507184 -0.0383462
-0.00454712 0.0212253 -0.036675
0.0174058 -0.0118851 -0.0425
0.0081598 -0.0195137 -0.03275
0.0101838 -0.019038 -0.0345857
0.0174308 0.0284196 -0.0436312
0.0154899 -0.0190542 -0.035275
-0.00884459 -0.000268688 -0.03296
0.0245466 -0.0155076 -0.0391
0.0191928 -0.00124969 -0.0479688
0.0228149 -0.0137208 -0.0407286
-0.00264457 -0.00953024 -0.034925
-0.00442896 0.0050319 -0.0393667
0.0102185 0.0284353 -0.0410778
0.00901798 -0.00520463 -0.045
-0.0032814 -0.00298378 -0.0382091
0.027202 -0.00395042 -0.0467
0.0291215 0.0239957 -0.0429714
0.0209893 0.0230847 -0.04559
-0.00546026 0.0126912 -0.0378
0.00767833 -0.0145505 -0.0380333
0.0420979 0.0103852 -0.0403
0.026326 -0.0181624 -0.0355429
0.0360031 -0.00453801 -0.0425
0.00873025 -0.0152107 -0.0379
0.0351837 0.0335386 -0.0337667
0.0398354 -0.00936534 -0.03552
0.0119971 -0.0183152 -0.035625
0.0237055 -0.0183722 -0.035475
0.00315528 -0.0137015 -0.03622
0.014669 -0.0187044 -0.03585
0.0253622 0.0307548 -0.0401
0.0155398 -0.0187194 -0.0357667
0.00645707 -0.00501507 -0.0439917
0.0326547 0.0068771 -0.0465
0.0086151 0.0201038 -0.045125
0.0272116 0.0132526 -0.0483071
-0.00957352 0.00324896 -0.0346727
0.0281492 -0.0147477 -0.0392727
0.0038146 -0.0100608 -0.0389143
0.0420916 0.0269424 -0.0338
0.0228081 0.00687388 -0.0491941
0.0220023 -0.0186746 -0.035675
0.0301817 -0.0113154 -0.0404429
0.0452249 0.0177245 -0.0358
0.0372385 0.0131979 -0.0437583
0.0163778 -0.0186954 -0.0359
0.0120757 -0.0170343 -0.03705
0.0308788 0.0301412 -0.0382
0.0379675 0.00413786 -0.0436333
0.0200698 -0.0183546 -0.03658
0.0102038 -0.00484819 -0.0454125
0.0146988 -0.000382773 -0.04795
-0.000486137 0.00505582 -0.0425
0.025461 -0.017452 -0.0366286
0.0225343 -0.0188211 -0.0352
-0.00273953 -0.00753705 -0.0366857
0.0369404 0.0190051 -0.04245
0.0245817 -0.00763695 -0.0445643
0.0111305 -0.0173246 -0.0364444
-0.00998143 0.010496 -0.0332
-0.00698896 0.00419811 -0.03655
0.03713 -0.0132811 -0.0351
0.0212011 -0.0132961 -0.0414
0.0348115 0.0206448 -0.0423
0.0379849 -0.00659449 -0.0399143
0.028195 0.032219 -0.0375
0.00818225 -0.0187693 -0.0341
0.0138778 -0.00369063 -0.0469143
0.0454907 0.00946545 -0.03755
0.0084351 -0.0183692 -0.03468
-0.00788553 0.00327661 -0.0356467
0.0290604 -0.00393603 -0.0464467
0.0100184 -0.0185639 -0.03498
0.0128176 -0.015652 -0.03847
0.0110271 -0.00766675 -0.0438667
0.0248455 0.0179823 -0.0477
0.00750839 0.0175962 -0.0456937
0.0110597 -0.0182515 -0.0355091
0.0138109 -0.0182275 -0.0363714
0.0155503 -0.0182202 -0.0365125
0.0217396 -0.0182155 -0.0364
0.016472 -0.00389764 -0.0472474
0.0345915 -0.0088104 -0.0396
0.036221 0.00230512 -0.04435
0.0437763 -0.00346336 -0.0369
0.0407781 0.023942 -0.0365
0.0452669 0.0172786 -0.0362667
0.00404903 -0.0145509 -0.036175
0.0164319 -0.0182705 -0.03664
0.0254502 -0.0182562 -0.0356111
0.0416462 -0.00211361 -0.0391727
0.0295676 -0.0135119 -0.0398
0.0335734 -0.000361763 -0.0453286
0.0191534 -0.0159427 -0.03935
0.0137453 0.0347868 -0.0347833
0.0264162 -0.0186142 -0.034975
0.0383659 0.0113368 -0.0432
-0.00306774 0.00688711 -0.0406857
0.0273273 -0.0185216 -0.0348
0.0182328 0.00413504 -0.0487062
0.018282 0.0166971 -0.0483
0.0281163 -0.00817087 -0.0434333
0.0156183 -0.0120379 -0.0421917
0.0245682 -0.0167144 -0.037525
0.0397873 0.0139926 -0.0417
0.0319908 -0.0114111 -0.0396
0.0454811 0.00785178 -0.0376167
0.0128915 0.013131 -0.04805
0.0263212 0.0325921 -0.037275
0.00981412 0.0282363 -0.0415
0.0435836 0.022244 -0.035025
0.00658196 -0.0184535 -0.0337667
0.00725227 -0.0184708 -0.034025
0.0101787 -0.0181754 -0.0353667
0.0339277 0.00787406 -0.0459
0.0320122 -0.0131253 -0.0385333
0.0415567 0.0202575 -0.038175
0.0262642 0.0112625 -0.0484375
0.0173838 -0.0179778 -0.0372
-0.00988206 0.00510238 -0.0329167
-0.00530356 0.00866053 -0.0385
0.0326572 0.0294817 -0.03766
0.0191016 -0.0179997 -0.037075
0.0191642 0.00592766 -0.0489625
0.0185346 0.0286607 -0.0432
0.0191607 0.0166632 -0.0483813
0.0403057 -0.00432265 -0.0395
0.014917 0.0280043 -0.0415
0.031766 0.0139554 -0.0461333
0.0163674 -0.0176839 -0.0375
0.00486254 0.0132068 -0.0453188
0.0361959 -0.012056 -0.0365
0.00926816 -0.0157982 -0.0376
-0.00370913 0.00147402 -0.0396
0.0218971 0.0272953 -0.0427286
0.0379491 0.0229473 -0.0391143
0.0174094 0.0147282 -0.04874
0.0301576 0.00305822 -0.0468
0.0227473 0.00327512 -0.0487062
0.0441611 0.00434545 -0.0388
-0.00656746 0.0187596 -0.0355
0.0271936 0.0122106 -0.0483333
0.00772443 -0.00112078 -0.04604
0.00261156 0.000335321 -0.044075
-0.000468356 0.0146088 -0.0416333
-0.00898385 0.000310684 -0.0331
0.00956894 -0.0180635 -0.0353
0.0137358 -0.0177596 -0.03678
0.031004 -0.0170691 -0.03535
0.00779718 -0.0111804 -0.0406
-0.00514925 0.00599073 -0.0391833
0.0126794 0.000377121 -0.04766
0.0145211 -0.0177875 -0.0369
0.014742 -0.0174134 -0.03739
0.00949462 -0.00902435 -0.0424
0.0101273 -0.0102328 -0.0418333
0.0164954 -0.00988484 -0.04335
0.00801546 -0.00431207 -0.04495
0.0282272 -0.015657 -0.0383
0.024582 0.0293532 -0.0411429
0.0425192 0.0256227 -0.0346
0.0407712 0.0176988 -0.0401
0.0155327 -0.017575 -0.0374333
0.0173119 -0.0176624 -0.037625
0.0263988 0.0103895 -0.0485312
0.0191989 -0.017534 -0.0375714
0.0200862 -0.0175004 -0.0374778
0.0263078 0.0339971 -0.0356143
0.0228662 -0.017742 -0.0366
0.0200696 -0.00223187 -0.0476733
0.0192165 0.0113904 -0.0491375
0.0264859 -0.0035659 -0.0469
0.0236855 -0.014628 -0.0400909
0.00471665 0.0203386 -0.04375
0.0155322 -0.0154033 -0.039775
0.0404617 0.0190686 -0.0397
0.0147406 -0.0109983 -0.042475
0.00141147 0.0237844 -0.0397333
0.0357318 -0.00512248 -0.0423
0.0406985 -0.00674761 -0.0374167
0.0343869 0.0239141 -0.0407875
0.00567644 -0.0179828 -0.034325
0.0430168 0.00713395 -0.0398
-0.00431835 0.00148006 -0.0391875
0.0065345 -0.0179474 -0.0345333
0.0174699 0.0332522 -0.0359667
0.00743638 -0.0178147 -0.03495
0.0100798 -0.0176203 -0.03588
0.00945896 -0.0101437 -0.041575
0.0107345 -0.0177063 -0.03595
0.0326188 -0.0129677 -0.0382875
0.029168 -0.00510266 -0.04585
0.0273317 -0.0086722 -0.043125
0.0138064 -0.0173579 -0.0371857
0.0164914 -0.0171996 -0.038225
0.0293276 -0.00958118 -0.0414
0.0173932 -0.0171771 -0.0382571
-0.000638487 0.0221381 -0.0391667
0.014603 0.025843 -0.0431429
0.0181883 -0.0172179 -0.0381167
0.0102931 -0.0172427 -0.0362833
0.000127106 -0.00494316 -0.0402077
0.0209469 0.00690313 -0.0490563
0.0272196 -0.00549523 -0.0460429
0.0237244 -0.017485 -0.03668
0.00909879 -0.000579826 -0.04675
0.0245524 -0.0174784 -0.036575
0.0408322 0.0169142 -0.0403333
0.0433752 0.0165841 -0.0380333
0.025587 -0.0122963 -0.04135
0.0262929 -0.0175024 -0.0364333
0.0209829 0.00178577 -0.0487
0.0273217 -0.0177376 -0.0357667
0.0282255 -0.0176433 -0.0356
0.029079 -0.01778 -0.0350333
0.0352877 0.000501104 -0.0447417
-0.00241128 -0.00840347 -0.03646
0.0119531 0.0140111 -0.0478353
0.0335735 0.00227096 -0.045775
0.0182664 -0.0136203 -0.041575
0.0282214 0.00133474 -0.0476067
0.000894139 -0.00144301 -0.0422
0.030702 -0.010116 -0.04071
-0.00269792 0.023085 -0.0376
-8.32726e-05 -0.00420297 -0.0404667
0.00924239 0.00136188 -0.047235
-0.00829794 0.00867878 -0.0354
0.00288032 -0.0129305 -0.036425
0.0246219 0.0221609 -0.0456417
0.0308705 -0.0120304 -0.0399111
0.0140135 0.0344679 -0.03525
-0.0033579 0.0149785 -0.0391909
0.00281888 -0.00960975 -0.03865
0.0209686 0.0139849 -0.0489625
0.00474276 -0.0174632 -0.03461
-0.00816196 -0.000316176 -0.0339667
0.0155844 -0.0158106 -0.0394375
0.00657975 -0.0175245 -0.0349429
0.00564775 -0.0173972 -0.0348583
0.031736 -0.013804 -0.0382818
0.0197899 -0.0171341 -0.0379
-0.00336091 0.00407684 -0.0401267
0.0237332 -0.0171014 -0.0371333
0.0332063 -0.0021071 -0.0451333
0.00931374 0.00766552 -0.0476125
-0.000595804 -0.00989605 -0.036275
0.0361172 -0.0109156 -0.03714
-0.00178636 0.0122525 -0.0413333
0.04502 0.0102713 -0.0379333
0.0137881 0.00145487 -0.04824
0.0313854 0.0254529 -0.0415
0.00204132 -0.0129618 -0.0356833
0.0181992 0.00050148 -0.0487667
-0.00302376 0.0174523 -0.0388
0.0280834 0.00422808 -0.0479385
0.0093674 -0.0171804 -0.0361667
0.0128313 -0.0167408 -0.03755
0.0237144 0.0239214 -0.044825
0.013612 -0.0168548 -0.03765
0.0173213 0.0151525 -0.0486
0.0209649 -0.00886947 -0.044075
0.0164145 -0.0167613 -0.0387
0.0226672 -0.0165292 -0.0382429
0.0283873 -0.0168326 -0.0368
-0.00896509 0.00414586 -0.0348
0.00581016 -0.0144415 -0.0371
0.017373 -0.0167654 -0.038675
0.0183408 -0.0167182 -0.0386
0.0200668 -0.0167038 -0.038325
0.0146518 -0.00483072 -0.0466714
0.0161994 -0.00510601 -0.0468
0.0110603 0.0221915 -0.0447467
0.0210215 -0.0166421 -0.0383375
0.0218538 -0.0165782 -0.0383636
0.0229603 -0.0168465 -0.0377
0.0336106 0.0332799 -0.034125
0.0018709 0.0222214 -0.0409857
0.0164589 -0.0111771 -0.0426687
0.0245568 -0.0170315 -0.0370667
0.00928312 -0.0162991 -0.0371
-0.00394064 0.00501404 -0.039725
0.0351351 -0.013502 -0.03625
0.00287139 0.0094669 -0.0448125
0.0253845 -0.0170177 -0.03715
0.0190795 0.00413218 -0.0487687
0.00682036 -0.0119523 -0.03982
0.00191698 -0.00137399 -0.0430167
0.0263728 -0.0170302 -0.037075
0.00166749 -0.000630731 -0.04315
0.0408031 -0.00766437 -0.03656
0.0287021 -0.0171915 -0.0361
-0.00448318 -0.0058504 -0.0359
0.0299319 -0.0171431 -0.03565
0.0390108 -0.0112472 -0.034775
0.00391008 -0.0110911 -0.0382
-0.00442249 -0.00219237 -0.0376833
0.00644689 -0.0141167 -0.0376143
0.00384099 0.0185831 -0.0437857
0.0173524 0.00773265 -0.049375
0.043296 0.00505474 -0.0397
-0.000829083 0.00601265 -0.0421636
-0.00118477 -0.00387669 -0.0398167
0.0371462 -0.00938503 -0.037525
0.0267556 0.0050008 -0.0486
0.0335536 0.0302995 -0.03668
0.00277239 -0.0166841 -0.03404
0.00792072 -0.0169794 -0.0359
0.00684801 0.0245182 -0.04245
0.0263432 0.00242946 -0.0481625
0.00832716 0.0159086 -0.046475
0.00836597 -0.0166455 -0.0364556
0.00916501 -0.0167014 -0.0366111
0.0108794 -0.0168163 -0.0369
0.0164028 -0.0163581 -0.0390857
0.0263167 -0.0145058 -0.03978
0.0147941 0.00273788 -0.0487
-0.00756275 -0.00307282 -0.0336167
0.0173087 -0.0163469 -0.03905
0.0255084 -0.0166981 -0.037625
0.0281212 -0.016397 -0.0374375
0.029094 -0.0167649 -0.03662
0.00451596 -0.00530324 -0.0432
0.0299452 -0.0166011 -0.0365143
0.0342498 -0.00305292 -0.0443286
-0.000486113 0.00689145 -0.0425143
0.0216872 0.0326572 -0.0363
-0.00956507 0.0113296 -0.0336375
0.000939336 0.000465004 -0.04295
0.0300295 -0.00944691 -0.0412875
0.00649538 -0.0156716 -0.0365909
0.00389086 -0.0165605 -0.0348267
0.036121 0.015825 -0.0443167
0.0236679 -0.0154762 -0.0391636
0.00477404 -0.0167528 -0.0350167
0.0217961 0.00946982 -0.0490875
0.0148465 -0.00818114 -0.0442
0.000449904 0.00695346 -0.0434
0.00526437 -0.0168629 -0.0351
-0.00328773 -0.00835273 -0.0354667
0.00564723 -0.0165319 -0.0354909
0.0005552 -0.0089508 -0.038
0.0129987 -0.0162287 -0.03805
0.0192201 -0.016236 -0.039
0.00840647 -0.0156405 -0.03745
0.0281343 -0.00388703 -0.0466294
0.00699724 0.0191593 -0.0451
0.0101548 -0.0124886 -0.0404333
0.0224547 0.0179823 -0.0477
0.0363282 -0.00595572 -0.0412
0.0200855 -0.0162628 -0.0388333
0.0435266 0.0113344 -0.0391667
0.0253962 -0.0163847 -0.038075
0.0201338 -0.00790573 -0.0448
-0.00371005 0.00052837 -0.039575
0.0322092 0.0345746 -0.0334
0.0289751 -0.016328 -0.0373
0.0317255 -0.0030581 -0.0456625
0.0182122 0.01847 -0.0478824
0.0309836 -0.016745 -0.0358333
0.0076656 0.00604161 -0.0469333
0.016391 -0.0145086 -0.04065
0.0318878 -0.0165649 -0.0356833
0.0337621 -0.0112451 -0.03854
0.0147838 -0.00911121 -0.04343
0.0253523 -0.0136381 -0.0406
0.0428199 0.0131262 -0.0394714
0.0389573 -0.00766083 -0.0383875
0.0409576 0.0105083 -0.04135
0.0101304 -0.0112053 -0.0412417
0.0123366 -0.0161724 -0.0379
0.0146387 -0.015687 -0.0392385
0.00751923 0.0274461 -0.04298
0.0173671 -0.0159348 -0.0394
0.0308181 0.00504603 -0.0472
0.0369601 -0.00108512 -0.0433
0.0317734 0.0340004 -0.0340167
0.0181916 -0.0159308 -0.039425
0.0201769 -0.0158613 -0.0393667
0.0290866 0.031929 -0.0373333
0.0201149 0.00594666 -0.048945
0.021012 -0.0158176 -0.0392857
0.0218779 -0.015777 -0.0392333
0.0137902 -0.0154675 -0.03905
0.00565568 0.0272931 -0.0432
0.0338552 0.023273 -0.0414
0.00436668 0.00132812 -0.04496
0.0390752 0.0186462 -0.04094
0.0229744 -0.0160457 -0.0387
0.0255166 -0.0160097 -0.03855
0.0262269 -0.0158864 -0.038575
0.038999 -0.00490178 -0.04024
0.0272166 -0.0161565 -0.038
0.0309373 -0.0162999 -0.03648
0.00083906 -0.0157767 -0.0324
0.0181579 0.0234048 -0.044875
0.00824707 -0.00951508 -0.0412833
0.0074199 0.0240861 -0.04308
0.00736442 -0.0158568 -0.036825
0.00929515 0.00503478 -0.04758
0.0288196 0.0122027 -0.04785
-0.000923295 -0.0114561 -0.0337
0.0395408 0.000479341 -0.0416
0.0109082 -0.0159528 -0.0377667
0.0110279 -0.0155742 -0.0381444
0.0146365 0.00690669 -0.04901
0.0371595 -0.00768208 -0.0392875
0.0226885 0.0247536 -0.0445647
0.0236983 0.0068937 -0.0491813
0.0182115 -0.0104429 -0.0431
0.0227703 -0.0151938 -0.0396
0.0174094 -0.0155119 -0.0398375
0.0190964 -0.0155168 -0.0399143
0.0308362 0.00768866 -0.0473333
0.00342529 0.0106786 -0.045
0.0199162 -0.0154655 -0.0398833
0.0299578 0.00417375 -0.0471571
0.0274357 0.0223797 -0.0449
0.0309089 -0.0159666 -0.0369
-0.000395227 -0.00357314 -0.0406
0.0317609 0.00134813 -0.0464385
0.00441329 0.0150759 -0.04492
0.0351772 0.0068193 -0.04516
0.00551834 0.0250752 -0.04116
0.00185489 -0.012147 -0.035825
0.0317299 -0.0161972 -0.0362
0.00484782 0.00405286 -0.0456125
0.0164904 0.0227288 -0.045125
-0.00100197 0.00446357 -0.0423
0.0318148 -0.0148139 -0.0375571
0.0433468 -0.000343735 -0.0381
0.0290181 -0.0147392 -0.0390143
0.00835826 0.023075 -0.04395
0.0335154 -0.00398741 -0.0444455
0.00205747 -0.0147959 -0.03487
0.0245415 0.000483831 -0.048025
0.0128489 -0.0129056 -0.0409643
-0.00901858 0.00319702 -0.03504
0.00220018 -0.0162986 -0.03395
0.0110056 0.00416613 -0.0480188
-0.00152487 0.000494121 -0.0409231
0.00395571 -0.0156027 -0.0354083
0.0173276 0.0104971 -0.0492556
0.004721 -0.0156965 -0.0356909
8.99142e-05 0.00319187 -0.043075
0.02542 0.0258002 -0.0435625
0.0321144 -0.0142769 -0.0377
-0.00793878 0.00141855 -0.03494
0.00538761 -0.0158356 -0.0359
0.00569642 -0.0155645 -0.0362286
0.000346346 0.0139947 -0.04263
0.00754945 -0.0154968 -0.0372444
0.00378705 -0.0148778 -0.0358125
0.029858 0.0210846 -0.04435
0.0209607 -0.0154034 -0.039775
0.0215667 -0.0154149 -0.0397
0.0290387 -0.0155048 -0.03818
0.0212377 0.0277769 -0.0423
0.0307551 0.015711 -0.0460571
0.0308231 -0.0154988 -0.0373875
0.028969 0.017645 -0.0461556
0.032843 -0.0159172 -0.0359
0.041169 0.00562692 -0.0414
0.0108847 -0.00972379 -0.0423
0.0125887 -0.00515532 -0.0459
0.0334954 -0.0156077 -0.03565
0.0190731 0.00241275 -0.0488
0.0191501 0.0050047 -0.0488368
0.0343224 -0.00735114 -0.041725
0.0218308 -0.00937019 -0.043575
0.00657054 0.022985 -0.0434867
-0.00246892 -0.0104521 -0.03398
0.0361792 -0.0136191 -0.03535
0.01095 0.0274234 -0.0417125
0.0137722 -0.00481841 -0.0464722
0.036042 0.0300289 -0.0361
0.0117705 -0.0151014 -0.0386333
0.0320269 0.00598197 -0.046725
0.0309065 0.00221844 -0.04665
0.0309692 0.0186531 -0.0449143
-0.00697951 0.0105179 -0.03669
0.0289894 0.0293241 -0.0401667
0.00192586 -0.0158508 -0.03394
0.0355461 0.00408138 -0.04495
0.00216544 -0.0155771 -0.03444
0.00579919 -0.0128319 -0.038175
0.0397001 0.0273675 -0.03645
0.0335557 -0.0102945 -0.03925
0.012859 0.0150107 -0.04793
0.0028902 -0.0156857 -0.0348636
-0.000402384 0.0235292 -0.0388
0.00944836 -0.0154461 -0.0379333
0.0130619 -0.0153149 -0.0388
0.0127267 -0.00320455 -0.0467833
0.000411748 0.00778456 -0.0434375
0.0100021 -0.00958868 -0.0422125
0.0144955 -0.0151938 -0.0396
0.00750845 -0.00216884 -0.0456937
0.0307195 0.0293453 -0.03896
0.00929417 0.0207182 -0.04492
0.0155431 -0.0148671 -0.0402083
-0.00147174 0.00765709 -0.0416667
-0.00515398 0.0158116 -0.0374071
-0.00585494 0.00320335 -0.0372125
0.000578606 -0.0147101 -0.0337
0.0164022 -0.0149819 -0.040225
0.0155665 -0.00300497 -0.0473
0.00564683 0.0221299 -0.04335
0.0404902 -0.00824531 -0.0363
0.0182543 -0.0150766 -0.040375
-0.00789547 0.00864244 -0.0358375
0.019193 -0.0150766 -0.040375
0.0209537 -0.0149139 -0.0402444
0.0227526 -0.0146877 -0.0400769
0.0289875 0.00676629 -0.0480063
0.0272054 -0.0152947 -0.0389333
0.0315655 -0.0154058 -0.0371333
0.0189114 0.000659456 -0.0487167
-0.00434604 -0.00767421 -0.034925
0.00100431 -0.0157184 -0.0328
0.0234448 -0.0109149 -0.04245
0.00686684 -0.0153448 -0.037
0.00599141 -0.00620861 -0.0433
0.0316919 0.0293959 -0.0381875
0.0110563 -0.0149846 -0.0386167
0.0176154 0.0350113 -0.0351
0.0119464 -0.0147625 -0.0389125
0.0119456 0.00685385 -0.048284
0.0173375 -0.0146377 -0.0407
0.0165096 0.00327456 -0.048725
0.0181788 -0.0146638 -0.0407875
0.0401441 0.00765415 -0.0422
0.0331399 -0.00998256 -0.0397
0.0246982 0.0362725 -0.0356167
-0.00660398 0.0148838 -0.0362167
0.0199911 -0.0146401 -0.0406833
0.042521 0.000570225 -0.0391111
0.00766837 0.0131324 -0.0469
0.0245699 -0.0146668 -0.0399727
0.00516006 0.00613914 -0.046
0.01287 0.0331691 -0.03592
-0.00620397 -0.00232232 -0.03582
0.0183019 -0.00788912 -0.045
0.0264344 -0.0103621 -0.04214
-0.00426114 -0.00666064 -0.0355636
0.000226815 -0.00843001 -0.0382273
0.00402746 0.0243671 -0.0412
0.00734318 -0.0139707 -0.0383364
0.00328507 -0.0153661 -0.0352
0.0101148 -0.00303968 -0.0462375
0.00626953 -0.0151242 -0.03685
0.00649774 -0.0147351 -0.0372545
0.0109996 0.00502987 -0.0480688
0.0337624 0.0059261 -0.0458667
0.033972 0.00703202 -0.0459
0.0218395 0.0131354 -0.0489062
0.00733328 -0.014822 -0.0376333
-0.00788131 0.0158199 -0.0348
0.0209351 -0.0143756 -0.04068
0.029632 0.0192271 -0.0451333
0.0311204 -0.0149849 -0.0378
-0.00750841 0.00703038 -0.0361
0.034068 -0.0153368 -0.0354
0.0226568 0.0104351 -0.04907
0.0380291 -0.0111195 -0.0356833
0.0201146 -0.0111707 -0.042725
0.0146511 0.00594838 -0.04892
0.00962064 0.00895262 -0.0478
0.0247761 0.0216568 -0.0459
0.0111348 -0.0144541 -0.0389875
0.0415365 0.0104499 -0.0408
0.0174096 -0.0141411 -0.041175
0.018336 -0.0141376 -0.0412
0.0191851 -0.0139896 -0.04126
0.0298332 -0.0144268 -0.0389
0.0128468 -0.0123716 -0.0413667
0.0334497 -0.0146536 -0.0364
-0.00583082 0.00518205 -0.0381625
0.0338452 -0.0149463 -0.0358333
0.0273957 0.0249807 -0.0430333
-0.00830323 0.00511056 -0.0353333
0.0154932 -0.0102282 -0.042975
-0.0103604 0.0103297 -0.03275
0.0380335 -0.00475217 -0.0409667
0.0200796 -0.0104073 -0.0430778
0.00204913 -0.011312 -0.0366667
0.0237599 -0.00956653 -0.0431167
0.00933671 -0.000189656 -0.04695
0.0282209 -0.00857197 -0.0429
0.0373498 -0.00502179 -0.0412667
0.011956 -0.0141953 -0.0394167
0.0442849 0.0203975 -0.035775
7.81673e-05 -0.0146918 -0.03292
0.000993183 -0.0148836 -0.03395
0.0191666 -0.00646162 -0.0462417
-0.00155044 -0.00215551 -0.0402273
0.0461717 0.0165102 -0.0373571
0.00140175 -0.014636 -0.0345333
0.0227114 0.00499901 -0.0489765
0.0126041 -0.0142481 -0.0396
0.0218503 0.000481843 -0.0484111
0.0137589 -0.0140503 -0.0402857
0.0143655 -0.0141204 -0.0405
-0.00721301 0.00305894 -0.03595
0.0146908 -0.0138106 -0.0408909
0.0146117 0.0331705 -0.0359667
0.00470269 -0.0102708 -0.0391917
0.020954 -0.0138277 -0.0410727
0.0434363 0.0248349 -0.0347833
-0.00183404 0.0214056 -0.0387
0.0226891 -0.0141239 -0.040475
0.00564683 0.00401793 -0.0458308
0.0401793 0.0179973 -0.0404
0.0236364 -0.0140518 -0.0404333
0.0246565 -0.0140541 -0.0404167
0.0237169 0.00593598 -0.04911
0.0254705 0.00145569 -0.04819
-0.00870243 0.00225274 -0.0348455
0.0281576 0.00685708 -0.04824
0.033359 -0.0110922 -0.0389167
0.0255366 -0.0139676 -0.0403375
0.0131816 0.0059628 -0.0487
0.0380886 0.031216 -0.0328667
0.0226742 0.00947896 -0.049
0.0264006 -0.0138628 -0.04025
0.0237109 -0.00300667 -0.04725
0.028137 -0.0137689 -0.0400462
0.00283669 0.0159473 -0.0439462
0.0284445 -0.0142481 -0.0396
0.0226469 -0.00625661 -0.046
0.037182 0.027525 -0.0374857
0.0299193 -0.0138928 -0.0393222
0.0183278 0.00859339 -0.0493
0.0119656 -0.0030717 -0.0466412
0.00837461 0.0210256 -0.0443625
0.038285 -0.0105377 -0.0357667
0.0408264 -0.0039784 -0.0392375
0.0173625 0.0356292 -0.035
0.0390807 0.0050603 -0.0430429
0.0289597 0.0250865 -0.04225
0.00761249 -0.0127458 -0.03995
-0.00749155 0.00506158 -0.0363333
-0.000525977 -0.00823427 -0.03795
0.00114086 0.0113752 -0.0435643
0.0200211 -0.00741595 -0.0453333
0.031906 0.0233423 -0.04218
0.0227146 0.00412902 -0.0488375
0.0128168 0.0195226 -0.0466583
0.00567721 -0.0110807 -0.0391667
0.0308484 -0.00935064 -0.04114
0.00819007 -0.0141466 -0.0386333
0.00662283 -0.00748329 -0.04272
0.0083125 -0.013768 -0.0390778
0.00920627 -0.0138215 -0.0392667
0.0110838 -0.0139144 -0.03945
0.0120182 -0.0136805 -0.03995
0.0325701 0.0238683 -0.0416583
0.00207396 -0.00753674 -0.0400333
0.0138249 -0.0136739 -0.04068
0.0360492 -0.00279295 -0.0433
0.0371555 0.0284238 -0.0366
0.0401946 0.0275393 -0.0358
0.0173348 -0.0136169 -0.0416
-0.00526894 0.0113408 -0.0384
0.0236527 -0.0137235 -0.04066
-0.00710204 0.00857299 -0.036675
0.0244386 -0.013707 -0.0406667
0.0320473 0.0251776 -0.0413667
0.0289891 -0.01371 -0.0398625
0.0306759 -0.0137785 -0.039
0.0335404 -0.00308709 -0.0447667
0.0128581 -0.00473598 -0.0462562
0.0145187 -0.01323 -0.0413167
0.0310462 -0.0140764 -0.0385667
0.0281657 -0.0111496 -0.0411714
0.00138519 0.0230821 -0.04
0.0396217 -0.00478007 -0.0398333
0.0347643 -0.0113861 -0.0377
0.0299531 -0.0129356 -0.0399455
0.00198101 0.00679869 -0.0445062
0.0376432 0.0172456 -0.0433
0.0407409 0.00592459 -0.0418111
0.029151 0.0335261 -0.0353667
0.0146459 0.0177119 -0.0476
0.0380141 0.0287253 -0.035725
-0.000684334 -0.0147012 -0.031925
0.0181622 -0.00995947 -0.0433625
0.00229574 -0.0143653 -0.0353
0.0218604 0.0041299 -0.0488187
0.0272788 -0.00700165 -0.0449
0.00280177 -0.0139379 -0.0358333
0.00960163 0.0287584 -0.0413
0.030957 -0.0130805 -0.0392889
0.00385164 -0.0138297 -0.0365438
0.0353813 -0.0129503 -0.0365125
0.00461194 -0.0139976 -0.0368
0.0200132 -0.01351 -0.0415333
0.00500401 -0.0137998 -0.0370667
0.00572112 -0.0138175 -0.0373727
0.00668934 -0.0136366 -0.0381143
0.0207065 0.0154226 -0.0487
0.00472244 -0.0092632 -0.0400333
0.0191885 -0.0135009 -0.0416
-0.00423252 0.0193688 -0.03723
-0.00154501 0.00421147 -0.041925
0.0246062 0.00862312 -0.0489875
0.0327299 -0.0138981 -0.0375333
0.000366677 -0.0121092 -0.03455
0.0337057 -0.0141124 -0.0367
0.0344156 -0.0138219 -0.0364714
0.0350868 -0.0143653 -0.0353
0.0251191 -0.00894113 -0.0433
0.0280372 -0.0101815 -0.0415833
0.0292927 -0.0124064 -0.0404667
0.0110571 0.0139785 -0.0475875
0.0379335 -0.00746935 -0.0392
0.0296916 0.00677868 -0.0478375
-0.00768615 0.0165172 -0.0345
0.0262877 -0.00394978 -0.0467143
-0.000427433 -0.0144963 -0.0325
0.00180695 -0.014029 -0.03505
-0.00414494 0.0203448 -0.0371714
0.00211772 -0.0138257 -0.0353857
0.0407868 0.0194468 -0.0393143
0.0103477 -0.0135254 -0.0397
0.0290538 -0.000384714 -0.04745
0.0217945 0.00861295 -0.0490938
0.0151643 -0.0132961 -0.0414
0.0407817 0.0284769 -0.0346
0.0101564 -0.00753985 -0.04375
0.0109671 -0.0130072 -0.0402182
0.015568 -0.0128693 -0.0417813
0.0376432 0.00141969 -0.0433
0.017299 -0.013008 -0.0419818
0.0048404 0.00504532 -0.045755
0.0227871 0.0077743 -0.0491667
0.0200567 -0.0128843 -0.0418875
0.0209695 -0.0128481 -0.0417857
0.0301905 0.00235592 -0.0468
0.0156251 0.004986 -0.0488687
-0.00135084 -0.0100069 -0.0355
0.022786 -0.0131107 -0.0412091
0.023675 -0.0129575 -0.0411533
0.0263135 -0.0129741 -0.0408214
0.0353729 -0.00480965 -0.0428125
0.0308417 0.00681703 -0.0473167
0.0324123 -0.0136479 -0.0379
0.0334335 -0.0137174 -0.0372
0.0229532 0.0150807 -0.0486
0.000422498 0.0200072 -0.0409
0.0403327 0.017259 -0.0406
0.0356478 -0.0141457 -0.0351
0.0311851 -0.00888463 -0.0414
0.00923832 0.00332643 -0.047275
0.0155323 0.0320659 -0.0366333
-0.000653543 -0.00397307 -0.0401818
-0.00119459 -0.0143359 -0.0318
-0.000650994 -0.0137266 -0.0328
-0.00941847 0.000658487 -0.0328125
0.0298987 -0.00752393 -0.0436333
-0.000173156 -0.0141504 -0.0332
0.0367554 0.0245894 -0.03885
0.0028662 -0.00872461 -0.0395
0.0317828 -0.0103453 -0.0401917
0.0314381 -0.00989299 -0.0406
0.00016076 -0.0138251 -0.0337667
0.0227938 0.00145064 -0.04852
0.00748717 -0.0131636 -0.0393714
0.00811204 -0.0133024 -0.0396
0.0310854 -0.0104311 -0.04038
0.00925713 -0.0130143 -0.04
0.0254237 -0.0111673 -0.04195
0.010077 -0.0130088 -0.0400417
0.00796924 0.0032338 -0.0468
0.011839 -0.0131183 -0.0404
-0.00337233 -0.00401734 -0.03763
0.0146857 -0.0127531 -0.04165
0.0218683 -0.0127109 -0.0416625
0.0417301 -0.00404993 -0.0384333
0.0281647 -0.0131117 -0.04045
0.0402787 0.0268999 -0.0359
0.0303661 -0.0133157 -0.0395
0.00919253 -0.00941337 -0.0419429
-0.00304767 -0.00378681 -0.038
0.00991833 -0.00140269 -0.0467875
-0.00332978 -0.00484514 -0.03746
0.0182757 -0.00125468 -0.0480765
0.0111058 -0.000386094 -0.0471813
-0.00831381 0.0130141 -0.0352
0.0145555 -0.00956487 -0.0431333
0.0218573 -0.0111834 -0.0426143
-0.00129479 -0.013755 -0.03196
0.0328348 -0.0122888 -0.0386
0.00057534 -0.0136314 -0.0343
0.0201206 -0.0118739 -0.0424571
0.00476184 -0.0130137 -0.0374067
0.00553618 -0.013155 -0.0376833
0.00644795 -0.01305 -0.0385
0.00685099 0.000567818 -0.0460833
0.00679123 -0.0129031 -0.039025
0.0119552 -0.0127628 -0.0407333
0.0406431 0.0164231 -0.0407
0.0280956 -0.0127571 -0.040625
0.0452507 0.0159573 -0.0378
0.033078 -0.0133133 -0.0377
0.03366 -0.0131671 -0.0375
0.00634532 -0.00961735 -0.040425
0.0165213 -0.00936359 -0.0436417
0.00204016 0.0185783 -0.04276
0.0343779 -0.0129145 -0.0372556
0.0342155 -0.0118447 -0.0379
0.00295867 -0.00398772 -0.0427846
0.0243164 -0.0072104 -0.0451
0.0362201 -0.00928692 -0.0381222
0.00111651 -0.0129895 -0.03486
0.00353778 -0.0130021 -0.036825
0.0165416 -0.0122346 -0.0422556
0.0164517 -0.00566631 -0.0466125
0.0114684 0.0181382 -0.0469
0.0102136 0.0140155 -0.0473438
0.0351547 0.00318105 -0.0451
0.0190468 -0.0122946 -0.0422429
-0.0014333 0.0086234 -0.04165
-0.000670096 0.00412221 -0.0425615
0.00471362 -0.00402421 -0.0438125
0.0306002 -0.012651 -0.0397667
0.00383976 0.0212964 -0.043
0.0153842 0.00216693 -0.0486
0.0348271 -0.0131874 -0.0368
0.0409741 -0.00601003 -0.0376333
0.00287943 0.00230047 -0.0445437
0.0263001 0.0140849 -0.0483125
-0.00238459 -0.00927714 -0.0354857
-0.00663659 -0.00354734 -0.0344
0.0409369 0.0187911 -0.0395
-0.00611012 0.0195006 -0.03575
0.0208938 -0.0083895 -0.0444
0.0307757 -0.00858686 -0.04189
0.0333515 0.0121734 -0.0460429
0.0407632 -0.00206459 -0.039975
-0.00316725 -0.00558154 -0.03724
0.0371535 0.0195056 -0.0419889
0.00309213 -0.00830612 -0.0399818
0.0128344 0.0310555 -0.0372143
7.74276e-05 -0.0129456 -0.0338
0.000574977 -0.0130007 -0.0343667
0.00155708 -0.0128943 -0.0352333
0.0182432 -0.00652176 -0.0462857
0.00747009 -0.0120976 -0.040275
0.026399 0.028514 -0.0412083
0.00933268 -0.0123694 -0.04045
0.0119597 -0.0122518 -0.04121
0.0307382 0.0235994 -0.04245
-0.00109743 -0.00205169 -0.0406
0.0129478 -0.0119045 -0.0416846
0.012055 -0.0117466 -0.0416
0.0138308 -0.0120862 -0.0418
0.0199156 -0.012216 -0.04224
0.020906 -0.0121473 -0.0422375
0.0218902 -0.012088 -0.04216
0.0227652 -0.0120373 -0.0420273
0.0410823 -0.00871125 -0.0351
0.040209 -0.00591651 -0.03855
0.0156106 -0.00734664 -0.0452667
0.0118954 0.00135301 -0.0478375
0.024529 -0.0119956 -0.0416818
0.0361786 0.00947233 -0.0447583
0.0092856 -0.0111412 -0.04095
0.0264253 -0.0120866 -0.0412818
0.0415127 0.00417755 -0.04108
0.0272642 -0.0120936 -0.0410643
0.0239874 0.0287293 -0.0414
0.0289863 -0.0120627 -0.04066
0.0299669 -0.0120752 -0.0403273
0.0333939 -0.0126424 -0.03806
0.00114344 -0.00220527 -0.0419571
0.0336209 0.0087794 -0.045875
0.0380066 -0.0101493 -0.0362714
0.0272805 0.0230201 -0.04466
-0.00791581 0.0104157 -0.0358
0.0137702 -0.00663158 -0.0453937
0.0309166 -0.00592872 -0.04487
0.00279576 -0.0121399 -0.0366909
0.0263182 0.0275146 -0.0418
0.0355835 0.00318934 -0.04485
-0.00062282 0.000633156 -0.04166
0.0296489 -0.00192068 -0.04695
0.0208562 0.0335466 -0.0352
-0.00186541 -0.0131712 -0.03132
0.0182655 0.0283049 -0.0436364
-0.00147381 -0.0128703 -0.03191
0.0166894 0.0266317 -0.043325
0.00557461 -0.0121005 -0.0384444
0.0244951 -0.0102436 -0.0425769
0.0390958 0.0248659 -0.0377125
0.00293145 0.0175788 -0.04345
0.00353422 -0.00137777 -0.0440667
0.00597591 -0.0120098 -0.03894
0.0308422 -0.00481199 -0.0455
0.0253857 -0.0118266 -0.04165
0.0317776 -0.0120597 -0.0393909
-0.00899738 0.00134905 -0.0339333
0.0325357 -0.0119601 -0.0389571
0.0110719 -0.00483834 -0.0456062
0.0374643 0.00773513 -0.04405
0.011874 0.0231007 -0.0446667
0.00125539 0.0203226 -0.0419125
0.00379315 -0.0120401 -0.0374667
0.00448998 -0.0122655 -0.0377333
0.0344376 0.0185864 -0.0437545
0.00484967 -0.0120148 -0.0380444
0.00930916 -0.0118707 -0.0407
0.0209646 -0.0117702 -0.0425
0.0263339 -0.0111678 -0.0417417
0.0261946 0.020316 -0.0460667
0.0215607 -0.0117823 -0.0424
0.0312815 -0.0121203 -0.0396
0.0345784 -0.0120075 -0.0375375
0.00919761 0.0230278 -0.0440231
0.0303876 -0.000387852 -0.0467
0.012478 0.0207705 -0.0459
0.0355493 -0.0121645 -0.03682
0.00440713 0.0186425 -0.04408
0.0182714 -0.0111642 -0.0427813
0.000136509 -0.0103254 -0.0365625
0.0254366 -0.00663909 -0.0453933
0.000901723 -0.0123539 -0.0349333
-0.00342553 -0.000482218 -0.0393923
0.00217736 -0.0119886 -0.03624
0.00316415 -0.0118742 -0.037125
0.00779718 -0.0117655 -0.0406
-0.0101818 0.00243544 -0.0337333
0.0388813 0.017588 -0.0419
0.0114378 -0.011659 -0.0415
0.014602 -0.0114264 -0.04225
0.0428948 0.0122395 -0.0395333
0.0119389 0.0104118 -0.048335
-0.00568791 0.00954088 -0.0380333
0.015595 -0.0111424 -0.0425429
0.0173579 -0.0111656 -0.0427688
0.0192033 -0.0111735 -0.0427
0.0316848 0.0248117 -0.0416182
0.016303 -0.0068896 -0.04582
0.0210147 -0.0111513 -0.0426933
0.0219291 0.0185408 -0.047625
0.0174124 -0.0093547 -0.0437333
0.00747277 0.0267708 -0.0425417
0.0226532 -0.0111223 -0.0425091
0.0200265 -0.00644377 -0.0462091
0.0237373 -0.0113278 -0.0421917
0.0209164 0.0194002 -0.0475611
0.0245663 -0.0111463 -0.0421
0.0443906 0.0140139 -0.03833
0.0262648 -0.0116511 -0.0415667
0.0372606 -0.0121329 -0.03584
-0.00368227 -0.00324323 -0.03772
0.0383399 -0.0122431 -0.035
0.0444824 0.00603277 -0.038475
0.0110395 0.0238308 -0.04356
0.00416972 -0.00472848 -0.0433
-5.32325e-06 -0.00778907 -0.0385333
0.0089337 -0.00880804 -0.04225
0.0173951 0.000526139 -0.04875
0.00474899 0.00228079 -0.04536
0.00108926 0.00594198 -0.0438188
0.023677 -0.00661408 -0.0456438
-0.00165621 -0.0122137 -0.0321667
0.0066955 -0.0111862 -0.03992
0.0383818 -0.00509971 -0.0405
0.00734601 -0.0112066 -0.0403667
0.0155689 0.0337394 -0.0359
0.0136846 0.0236813 -0.0444375
0.0107528 -0.0114387 -0.0414
0.0119677 -0.0111489 -0.0419083
0.012828 0.0315124 -0.03685
