ply
format ascii 1.0
comment Created by Open3D
element vertex 1520
property double x
property double y
property double z
end_header
-0.016162 0.0141152 0.0392379
-0.021 0.0293491 0.0167261
-0.00778631 -0.0229437 0.0194428
0.0291375 0.00861096 0.041427
-0.0242574 -0.0111058 -0.00533621
-0.035387 0.0203292 0.0155032
0.0156 0.00519518 -0.0122122
-0.00957968 0.0303204 0.02745
0.023453 0.0289041 -0.00937815
0.0476913 0.00631561 -0.0238826
0.0140395 -0.00752699 0.0227667
0.0283261 0.0148082 -0.0157078
-0.0264862 0.0310562 -0.0356579
-0.016665 0.0256896 -0.0428789
0.0197423 -0.00220957 0.0317178
-0.0135448 0.0277679 0.0329541
-0.0418152 0.0113309 -0.026799
0.00652964 0.0312799 0.02295
-0.0308951 0.0403181 -0.0151118
0.0264083 -0.0101913 0.0370636
-0.03645 -0.0119724 -0.024948
0.0307149 0.0285265 -0.0253659
-0.0338333 -0.0169834 -0.0207448
0.0205436 0.0157567 -0.0518135
0.0369682 -0.0201696 0.0227308
0.042192 0.00384692 -0.0281922
-0.0187897 -0.00484412 0.0371754
-0.0229364 0.00234823 -0.049133
0.0388358 -0.00396921 -0.0276149
-0.02666 -0.0245455 -0.0150692
0.0149035 -0.00805271 -0.0515594
0.00470001 -0.0258917 0.0376948
-0.00644154 -0.0263214 -0.0265919
-0.0425889 0.025554 -0.0141405
-0.0356182 0.00125292 -0.0340197
-0.0398958 0.0184723 -0.0286085
-0.0446145 0.00228004 -0.00697464
0.0347049 -0.0219979 0.0173106
-0.00513384 -0.0259627 -0.0291367
0.00586638 -0.0103104 0.0273
0.00673244 0.0219761 0.0413724
0.002234 0.00322558 0.03327
0.0451831 -0.010338 0.0110308
0.0186897 0.017635 0.0172852
0.00033029 -0.019147 0.0342529
0.0317622 -0.0179226 -0.0206477
-0.0166249 0.0311312 -0.0438048
0.0109296 -0.00710182 -0.0276251
0.0271723 -0.0139314 -0.0250597
-0.0389404 0.0248112 -0.0153815
-0.0416299 0.00767476 0.0174041
0.00758651 0.0238683 -0.0526658
-0.0153603 0.016747 0.0383593
-0.00405555 0.0239146 0.031075
-0.0200169 -0.0156937 -0.0265099
0.025971 0.00505602 -0.017417
0.00291901 0.0178718 0.0356404
0.0138826 5.85638e-05 -0.0308983
-0.0433909 0.0246747 -0.00704035
-0.0228 0.0358047 0.0102634
0.0126437 -0.0162836 0.0171
0.0473573 0.020285 -0.0213385
0.0194557 0.00143615 0.0335907
0.0202667 0.00330859 -0.0087938
-0.0303352 0.0220445 0.0100694
0.0128662 -0.0191792 -0.000967912
-0.0202494 -0.00700005 0.0356703
-0.00448387 0.0384546 0.022719
0.0275 -0.0162302 0.0173021
-0.01068 -0.0249195 0.0154653
0.0502402 0.0103847 0.0110186
0.0335842 0.0272922 -0.00778039
-0.012474 0.0372676 0.0208278
-0.0292556 0.00332849 0.0293279
-0.031963 -0.0174745 -0.0178385
-0.0357084 -0.00569677 0.0208013
0.0409894 0.0320458 0.0173624
-0.0251472 -0.00772562 0.0274113
-0.0073195 0.00143016 0.0391672
0.00534266 -0.00760891 -0.0159663
-0.037 0.0358324 -0.0136581
-0.0319333 0.00578529 -0.0374026
-0.0255253 0.00771612 0.0313355
-0.0117467 0.0296169 0.0310884
-0.0300539 0.000562212 0.0263914
0.0133546 0.0254608 -0.0523972
0.00587207 0.0185701 -0.0549861
-0.018516 -0.00581952 -0.0483545
-0.0439571 -0.00949449 -0.0124287
-0.0132794 0.0270078 0.0338208
-0.000666114 0.0131366 0.0345939
0.018091 0.0238253 0.0280821
0.027918 -0.0236925 0.00435545
-0.0249513 -0.0128717 0.0234108
0.0127875 0.00327298 -0.0310225
0.0283625 -0.0129714 0.0290061
-0.00159839 -0.0175022 0.0253879
-0.0300708 0.0366608 -0.0331647
0.0247142 0.0121916 0.0216629
0.0110715 0.0292623 0.0305636
-0.0358729 -0.0060504 -0.0332663
-0.0349789 -0.0111635 -0.00761481
0.0243363 -0.00520289 -0.0154083
0.00694198 -0.0171448 -0.00917614
-0.0463688 0.0165883 -0.0160539
0.0360302 -0.0132298 -0.0228621
0.00583334 0.0202943 -0.0150666
-0.027662 0.0266987 -0.0394879
0.00219481 -0.0113302 -0.0139413
0.0295167 0.0284195 0.0208944
-0.0340111 0.0201777 -0.0340769
0.0473409 0.0167811 0.00278022
0.0341917 0.0148835 0.00917165
0.00573358 0.0402673 0.011884
-0.0353425 0.030094 -0.00950461
-0.00799113 0.0269033 -0.0486758
-0.0294337 -0.0128923 0.018058
0.00580267 0.0197072 0.0429495
0.048599 0.0122758 0.0037759
0.0415783 0.0310945 0.0172824
-0.00417207 -0.0271585 -0.0273055
0.0440703 -0.0101971 0.0226521
0.029158 0.0130322 -0.0157568
0.00350138 -0.0171249 0.0252063
0.00444299 -0.0263778 0.00559472
-0.0328414 -0.00134399 0.0233758
-0.0151891 0.0233601 -0.0485917
0.0460106 0.0219687 -0.0204008
0.0290441 -0.0049192 -0.0304731
-0.00152921 0.0139281 -0.0558929
0.0208797 -0.00203316 -0.00231477
0.0265001 -0.003143 0.006725
-0.0434232 0.0175745 -0.00874452
-0.023888 0.00857215 0.0317902
0.0244888 0.00851006 0.0142333
0.0208967 -0.0115473 -0.0274723
-0.0122067 -0.0235932 0.0224436
0.0301853 0.0310079 -0.00508424
0.0324604 0.0121816 -0.0145483
-0.0303557 -0.0183891 -0.024155
0.0410804 0.0284377 0.00283523
-0.0137834 -0.00557864 -0.0491404
-0.025838 -0.0176293 -0.0331806
-0.0247095 -0.0248073 0.00294348
0.032325 0.0157801 0.00553021
0.00962407 0.0112565 -0.0298929
0.0166019 0.0257927 0.0306601
0.0141438 0.017706 0.0381568
0.0248643 -0.00671491 0.0425736
0.0222 -0.0108921 0.0414186
0.00291406 0.0152001 0.0365766
0.0228205 0.0159012 0.00196269
0.00753642 0.0385489 0.0298132
-0.032814 0.0245591 0.0216811
0.0509219 -0.0014085 -0.0185108
0.03645 0.0140325 0.0217931
-0.0282354 0.0311188 0.000271803
0.00187207 -0.021307 0.0201334
0.0202125 -0.00213788 -0.00775792
0.0128192 -0.0040461 0.0271465
-0.0469091 -0.004004 -0.00616633
0.041477 0.0275543 -0.0203711
0.00381351 -0.00220588 0.0329937
0.0489622 0.00410846 -0.0222873
0.0309333 0.0111471 0.0387336
-0.0333326 0.0302297 0.011256
-0.0185125 -0.0121275 0.0228331
0.0490673 0.0166361 0.011087
-0.0344572 -0.0147074 -0.016985
0.0451388 0.0213027 -0.0222419
-0.0270387 0.0401983 -0.00403233
-0.00234418 0.0131096 0.0386348
-0.0294301 -0.0195796 -0.0145745
0.0409598 0.0059501 -0.00879303
0.0584086 0.0123216 -0.00760165
-0.0310969 0.0284378 -0.0340464
-0.0295768 0.00774399 0.0292161
0.0116726 0.0347137 0.0254492
-0.0345126 -0.00212113 0.02248
0.0113991 0.0168509 -0.0563008
0.0143913 0.00681978 -0.0189936
-0.0300215 0.0346648 -0.0265728
-0.00962265 0.0184481 0.0342649
-0.0295649 -0.0130739 0.0210522
-0.0452583 -0.00124777 0.00201698
-0.0168202 0.00157043 0.0341035
-0.0269623 -0.00331041 -0.0295821
0.0207715 0.0212505 7.27825e-05
-0.0436769 -0.0049111 -0.0205198
-0.0394484 0.00864275 -0.00155337
-0.0211722 0.0184901 0.0367843
-0.00769033 0.0107415 0.0357
-0.046375 -0.00501931 -0.0114231
0.0047069 -0.00310056 0.0313857
-0.019346 0.0210328 0.0318361
0.0427344 0.0291391 0.0119348
-0.0221394 0.0256704 0.0263984
-0.00965239 -0.0238804 0.0173126
-0.0416264 0.0113548 -0.0070725
0.00487946 -0.0257589 0.003799
-0.0400986 -0.000326648 0.011875
0.0388445 0.0265182 -0.0230299
0.0415814 0.0172092 -0.0269585
0.0283233 -0.0155772 0.0190994
0.0389477 -0.0214282 -0.00880593
0.0181909 0.0148807 0.0224
0.0112984 0.0050663 -0.0564495
-0.0284992 0.00409346 0.0297394
0.0243345 0.00150298 0.0147589
0.0496966 -0.00125666 0.0137021
0.0132382 0.0284264 -0.0506557
0.00630395 -0.02113 0.000281257
0.0156544 -0.00878678 0.0329524
-0.00612081 0.00859716 0.0491016
-0.0165 -0.0174293 -0.0338741
-0.00423745 -0.00512984 0.0341272
0.0437212 0.0158231 -0.0043394
-0.0462438 0.0148442 -0.0187247
0.0120591 -0.0139691 0.0199744
0.0373205 0.0201077 -0.0280474
-0.00416822 -0.0273085 0.0118517
-0.0239634 0.0319514 0.0280092
-0.00418703 0.00140219 0.0483521
-0.0114246 0.0247567 0.0315751
0.0163497 0.0151066 0.0238321
-0.00334593 0.000713487 0.0385506
-0.00712706 0.0114067 0.0494016
-0.0249942 -0.0058268 -0.0321169
-0.0203649 -0.0139297 -0.0422602
0.02075 -0.0218377 0.0236758
0.0463214 0.0147537 -0.000611263
0.055787 -0.00517709 -0.00592952
-0.0340926 0.0239994 -0.0343498
0.00842419 -0.01659 0.0218099
-0.0164919 -0.0117123 -0.0453351
0.0198733 0.0112782 -0.0187784
-0.0286191 -0.0130214 0.0218604
0.00568528 -0.00417643 0.0304857
-0.0380788 0.0164436 -0.0197544
0.0048122 -0.00145883 0.0348072
-0.0411104 0.0225139 -0.015128
-0.0388049 -0.00298526 -0.0318879
-0.0331713 -0.0168477 0.0119652
-0.0384603 -0.00689401 -0.0276823
0.00118686 0.000416574 0.0340396
-0.0314339 -0.00497949 0.0256438
0.0170972 0.0284178 0.0154535
0.0135028 -0.0195779 0.00941259
-0.0173082 0.0302269 -0.0436546
-0.0220513 0.0175945 0.0368646
-0.0293879 -0.0172189 0.0163321
-0.031187 0.0212601 0.0247603
0.03006 -0.0129099 0.0155878
0.00108942 -0.00322079 0.0456131
0.012688 0.0111148 0.0278
0.0319379 0.0338084 0.00019799
0.0573515 0.0140814 -0.00790881
0.0473863 0.0147547 -0.0231496
0.038752 0.0284142 -0.000696247
-0.00850265 0.0331041 0.0291192
-0.0415268 0.00497971 -0.00795343
-0.00121461 -0.024777 0.01454
0.00497832 0.0023348 0.032625
0.00489111 0.0275476 0.028
0.0140867 0.0111645 0.0284557
-0.03724 0.0192943 -0.0303232
-0.0285729 -0.00759921 0.0245163
0.0222211 0.00493338 0.0108651
0.0012231 0.0245891 0.0323183
-0.03565 0.0370392 -0.00437667
-0.0447333 0.0193459 -0.0178486
0.0248088 0.0111479 0.0011785
0.00951161 -0.00843501 0.0281738
-0.0296867 0.00954365 -0.0221202
0.00820317 0.0328767 -0.00899169
-0.002189 -0.0194831 0.0228567
-0.0359115 0.0130724 0.0238162
-0.0143534 -0.00217237 0.0388041
0.0300238 0.0247329 -0.0304319
-0.037322 0.014039 -0.0366844
-0.00533515 -0.0253403 0.0181491
0.000220525 -0.0085738 0.0310348
0.0365917 0.00955396 0.0254007
-0.0360845 0.0120221 -0.0390998
0.00942485 0.0284116 0.0343757
0.00109425 -0.024525 0.0161048
0.0126009 0.0290671 0.0290246
-0.0215863 -0.00783486 -0.0370738
0.0350667 -0.00315439 0.0163855
0.0101293 -0.00884742 -0.0131445
0.0239231 0.0176959 0.0181015
-0.0308327 0.0337852 0.0136775
0.0228916 0.00674233 0.00914623
-0.0130624 0.00137892 0.0396108
-0.00859506 0.0130703 -0.0535674
-0.010503 0.0364809 0.0235778
0.00127117 -0.011854 0.0278625
0.0146496 -0.0185286 -0.00744615
-0.0192084 0.00768426 0.0392935
0.0253646 0.00725585 -0.0331026
0.050202 0.0112751 0.0210191
0.0233683 0.0256496 -0.0280775
0.0342083 0.00055667 0.0324634
-0.0309071 0.0229157 -0.0393401
-0.0361 0.00935469 -0.034574
-0.0300467 -0.0192335 0.012782
0.0221878 0.0023315 0.0100096
0.0323571 0.00148971 0.0362542
-0.0172415 0.000620571 -0.0480115
0.0183303 -0.00922094 0.00910468
0.0275721 0.0105322 -0.0162619
0.0456851 -0.0121116 -0.0159434
0.0468249 0.0175598 0.002003
-0.000728265 -0.0214131 0.0191833
-0.0086709 -0.0186199 0.0237838
-0.03997 0.0272148 0.00470829
0.00916321 0.0118912 -0.029664
0.0496343 0.0139241 0.0225977
-0.0476077 0.0120759 -0.0152474
-0.00215585 -0.02485 0.0147667
0.0265387 -0.00249535 0.0064
-0.028345 0.0290954 0.0187379
-0.0246739 0.0112911 -0.039347
-0.00677521 -0.00215972 -0.0535256
-0.0233541 -0.0220936 0.0129652
0.0558633 0.00199535 -0.0105867
-0.00789138 0.0407551 0.0168317
-0.00165125 -0.0139895 0.0282921
0.0379093 0.0122096 -0.029903
0.00316452 0.0104298 -0.0565493
-0.0339824 0.00592686 -0.0422208
0.0319894 0.000553432 -0.0142344
0.00129522 0.0305449 0.0310143
-0.0416058 -0.00741873 0.00761168
-0.0121633 -0.0258712 0.0137044
-0.0389726 -0.0077481 0.00474048
0.0209598 0.0220771 -0.0301737
-0.0415149 0.00832753 -0.030094
0.0490977 0.015825 0.0100897
0.00882541 0.0067381 -0.0568644
0.010476 -0.008579 -0.0150051
0.041022 -0.0157768 0.0136671
6.8466e-05 0.0362312 0.0331815
-0.0318679 0.0177645 0.0237889
-0.00764335 0.0194757 0.0329167
0.0336793 -0.0223221 0.0145343
0.0199236 0.00763476 -0.0188413
-0.0148935 0.0327865 -0.0385515
0.0243675 0.00946089 0.00646089
-0.0226749 -0.0156553 0.0100741
-0.0328929 -0.00384603 0.022487
-0.00713309 -0.0202399 0.0226697
-0.00242364 -0.00423375 -0.0540758
-0.00128788 -0.00928121 -0.0508523
0.00932501 -0.0047281 -0.0176514
0.00396877 -0.0245248 0.0216509
-0.0182199 -0.0118331 -0.0444422
-0.0302 0.0364253 -0.0223906
-0.0206433 -0.0136186 0.0332804
0.0305133 0.0267594 -0.0101494
0.0501131 0.0122337 0.0199985
-0.0102059 0.039764 0.0171229
-0.0321922 -0.0193671 0.00652725
0.0243828 0.00319365 0.0137449
0.0207785 -0.0103029 0.0100963
-0.00761454 0.0283764 0.0296833
0.0223219 0.0157714 0.00821047
0.0363872 0.020564 -0.0100423
-0.0356554 -0.00311297 0.0226305
-0.0276098 0.0301617 0.0208784
-0.000918329 -0.00223634 0.0370909
0.0491629 -0.0114814 -0.0105234
-0.00883472 -0.000451236 -0.0532117
0.0390981 0.0263223 -0.00264839
0.0314615 -0.011216 0.0181869
-0.000410075 0.0213603 0.03193
-0.0250901 0.0186448 -0.0451426
0.0270753 -0.0248337 0.0113959
-0.0313768 -0.00572196 0.02354
0.0151148 -0.0167689 0.022826
-0.0186272 -0.0273449 0.00751872
0.00663255 -0.002137 0.0440907
0.00849328 0.0211695 0.0406686
0.00280494 -0.0140301 0.0390217
0.00219843 0.0158727 0.0325556
-0.0148317 -0.000326098 0.0340961
0.0372818 0.0256353 -0.00511062
-0.0209956 0.0121302 0.0385452
-0.0142754 -0.0249218 -0.0313242
0.018306 0.0228586 0.0195167
0.00771429 0.00495686 -0.0150562
0.0315 -0.00671109 0.0317615
0.0308366 -0.0204574 0.000256363
-0.000530142 0.0139006 0.0476432
0.01315 -0.0206901 0.00195947
-0.045175 0.00496483 -0.0230691
-0.00870701 0.0149223 -0.0531853
-0.0238871 -0.0109705 0.0332557
0.0183039 0.0272921 -0.0157062
-0.0299638 -0.000325535 0.0262718
0.0257125 -0.00844852 0.0398139
0.0153365 -0.00752389 0.0218143
0.04725 0.013109 0.000329829
-0.0360093 0.0214262 0.0203072
0.0209004 -0.00971274 -0.0282964
0.0163333 0.0122223 0.0253457
-0.0380241 0.0157536 0.0208862
0.00437622 0.0403522 0.0142202
0.0209068 -0.0104602 -0.0279456
0.00308623 0.0036353 -0.0569188
-0.0301466 0.0363242 0.00805133
-0.0340929 0.0313516 -0.0223994
-0.0308206 0.0349437 0.0186
0.0444782 0.0250872 0.00443833
0.025725 0.0184629 0.0433413
-0.0113292 0.0113293 -0.0528514
-0.0383357 -0.0167538 -0.00522163
-0.0229364 -0.00116578 0.0368271
0.0193 -0.0176974 0.00264657
-0.0385231 0.0202114 0.0146493
-0.0174429 0.0343078 -0.0219145
0.0177111 0.0364955 0.0360858
0.0472837 0.0103331 0.000297766
-0.0318222 -0.0112763 -0.0321766
0.14 0 -8.57253e-18
-0.0267551 -0.0250288 -0.00332892
-0.0318667 -0.00651834 0.0188487
-0.0252805 -0.0196486 0.00128705
-0.03388 -0.0191584 -0.0167707
-0.0359 0.0159914 -0.0334149
0.00280974 0.0295347 0.0265606
0.00568148 -0.0130364 0.0383594
0.0220167 0.0354427 0.00941701
-0.0255913 -0.0134785 0.00652545
-0.0456357 0.0184482 -0.0168145
0.00193761 0.00384447 0.034836
0.0428323 0.0230931 -0.000782248
0.00197489 -0.0201001 0.0219977
-0.0160225 -0.000455853 -0.0486641
0.022035 0.000412363 0.0488381
0.0278417 -0.00403184 0.000213766
-0.0259287 0.0338791 0.0166304
0.019276 -0.0235466 -0.00152959
-0.0323301 -0.00312762 0.0256277
0.0419695 0.014027 -0.00713794
0.0138929 0.0330192 -0.00458008
-0.031073 0.0330224 -0.026817
-0.0130668 -0.023084 0.0230171
-0.0280714 0.013925 -0.0294165
-0.038907 0.000927814 -0.00161112
-0.0402762 0.00311846 0.0138781
-0.0166914 0.00136536 0.0391923
0.0229482 -0.0195637 -0.00411252
-0.0258671 -0.021136 0.0137569
0.00935261 0.00513263 0.0440108
0.0481257 0.0184181 0.00838125
0.0254022 0.00948409 0.0137022
0.02344 -0.00693488 -0.00329074
0.0228705 0.00764769 0.0091287
0.0223978 0.0130261 0.00906567
0.0158075 0.0192086 0.0229486
0.052638 0.00098859 -0.016779
0.013988 -0.00938628 0.0343443
-0.00763384 0.00501418 0.0398942
0.0331222 0.0220811 0.0244912
-0.0293452 0.0219841 0.0243441
0.0274042 0.0222349 0.0388488
-0.0242941 0.00414337 0.0377966
-0.00218394 -0.0194707 -0.0386173
0.0382748 -0.0193523 0.0161189
-0.000470742 -0.0084127 -0.0517632
0.0154855 -0.00478302 -0.0178784
0.055772 0.0131532 -0.0116209
0.0205276 -0.00318864 0.0110115
0.0203 -0.0220142 0.0245633
-0.0370153 -0.00907366 -0.00908755
0.016059 0.0157753 0.0254386
-0.0177905 0.0382275 0.0184858
-0.0374 0.0343644 -0.00841048
0.0220667 -0.0212495 0.0181376
-0.0274187 -0.000419488 -0.0293475
-0.0280457 0.0297864 -0.0364234
0.0166715 -0.0147391 0.00382699
-0.0313493 -0.0113402 0.0204
-0.0332381 0.024114 -0.0351099
0.0189142 0.0249063 0.0222362
0.0145384 -0.0131862 -0.00513914
-0.0311429 0.00672456 0.0284424
-0.035948 -0.0160005 0.00372461
0.0112167 0.0267586 -0.00672956
-0.0421667 0.0265479 -0.0133186
-0.0276607 0.0295026 0.0209606
-0.0249602 0.00220962 0.031013
-0.0343 0.00777443 -0.0372886
0.042905 -0.0140585 0.0181708
0.038159 0.0210779 -0.00861332
0.00030352 -0.0172863 -0.0428257
0.0161538 0.0264763 0.02005
-0.0420298 0.0239868 -0.00515778
-0.0429182 0.0264375 -0.00975592
0.0417534 -0.0152297 0.0143189
-0.01665 0.0401524 0.01574
0.0318084 0.0204698 -0.0300715
0.0174062 0.0114772 -0.0190516
0.0220824 -0.00387609 0.00461396
0.029316 -0.00144798 0.00385001
-0.0445917 0.00948867 -0.0241099
0.00364055 -0.0267273 0.0182544
-0.040733 0.0262902 0.000248372
0.000687985 0.0317229 0.0268537
0.0446153 0.000489063 -0.00342913
-0.00879394 -0.0204501 -0.0368673
0.0113071 0.0176355 0.0299854
0.0462703 0.0239026 0.0200425
0.0346167 0.0050352 0.0315109
0.0359167 0.0130478 0.0155174
-0.0215032 0.0338347 0.0280547
0.0502369 0.00193888 -0.0201199
-0.0368 -0.00873216 0.0112652
-0.00598398 0.0159273 0.0495946
0.00547594 0.0136992 -0.0286505
0.0393068 0.0223179 -0.0061887
-0.0249 -0.0231103 0.00316804
0.00684436 -0.00956741 0.0301025
0.0211708 0.0113178 -0.0183979
0.0103624 0.0139485 0.030116
0.0110446 -0.0232431 0.008275
0.01785 -0.00985611 -0.00580721
0.0499137 0.0130996 0.0182331
-0.0367037 0.0111065 0.0213
0.00366887 -0.00933572 -0.0150854
0.0353667 0.0122543 0.0119035
0.0356067 0.00883398 0.0108435
0.00846745 -0.0157427 -0.00606605
-0.0257216 -0.0155127 0.0198869
0.0476388 -0.00579002 0.0209129
0.0238011 -0.00377424 0.0111935
-0.00970294 -0.015486 0.0269957
0.00928854 0.0303657 -0.00710249
0.0472001 -0.00120091 0.0022315
0.0343301 0.0222514 -0.0102672
-0.00403065 0.0230262 0.0355
0.0417944 0.0242607 -0.00101004
0.0192678 0.0193388 0.0145486
-0.0362474 -0.0138643 0.00384667
-0.0212318 0.0203484 -0.0473588
0.0448841 -0.00821378 0.0282415
-0.033 -0.0196573 -0.0170232
0.0306159 0.0336023 -0.00254306
0.0363168 -0.00831316 -0.00773906
-0.04315 -0.0033675 -0.0226494
0.02109 -0.021953 0.0172796
-0.00613043 -0.0203994 0.0368238
-0.0368065 -0.00973736 -0.0250992
0.0245702 -0.0105057 -0.0279085
0.00239363 0.0327916 -0.0483783
-0.0320333 -0.0067629 -0.0347408
-0.0425014 0.00680321 -0.0265893
-0.0245424 0.0148929 -0.038241
-0.0456062 -0.00506046 -0.014184
0.00662764 -0.0165136 -0.00617106
0.0543505 -0.00218787 -0.011555
-0.0383515 -0.0105786 0.0066514
-0.0346326 -0.0137447 0.0145701
0.0107222 0.00130855 -0.055958
-0.00773705 0.0257106 0.0460476
-0.0269734 -0.0104881 0.0238253
-0.000190477 -0.0243699 0.0287299
0.0226573 0.000651785 0.01615
0.00944409 0.0184764 -0.0230924
0.0354542 -0.00602516 -0.0282465
-0.0373333 -0.00949309 -0.0268304
0.0352063 0.0158513 0.0127854
0.000447696 -0.00496447 0.0354506
0.0265306 -0.0145973 -0.00946012
0.0190622 0.0113172 -0.019012
0.0274254 0.0138779 0.00825715
0.0309884 0.0310326 -0.00430878
0.03985 -0.00474041 -0.00682316
-0.0277427 0.00855037 -0.0330383
0.0218653 0.021107 -0.0307254
-0.0128053 0.0273027 -0.0454056
0.02545 0.0165349 -0.00411443
-0.0187648 -0.0259226 0.00921944
-0.00860126 -0.00653557 -0.0508061
-0.0198 -0.0204546 0.012649
0.0234318 0.0183205 -0.0315627
-0.00456875 0.0140061 0.0388184
-0.0373917 -0.0139982 0.00467677
-0.0421333 0.0275171 -0.00971256
-0.0185625 0.00675165 0.0282571
0.0327875 0.0220873 0.020907
0.0327858 0.0164613 -0.0137133
0.035275 0.00227724 0.0110507
-0.0228211 -0.0180264 0.00152729
0.0134 -0.0255681 0.0300542
-0.0242265 0.0169626 -0.0469717
-0.0348343 0.0239241 0.0136634
0.03105 0.00959139 0.0389229
-0.036839 0.0395525 -0.0159069
-0.0143394 0.0293274 0.0273261
0.0458961 0.0014182 -0.0247949
-0.0200283 -0.00735697 -0.039994
-0.00771606 0.0213153 0.0319
-0.0353963 0.00506831 0.0250918
-0.0364193 0.0129656 0.02168
-0.027621 0.00325565 -0.0467237
0.0263758 0.0319297 -0.00662292
-0.009651 0.0295583 -0.0448554
-0.0258399 -0.0129503 0.0226511
-0.0412405 0.0113348 0.00992355
0.0382779 0.032081 -0.0186928
0.02202 -0.00221274 0.0470944
0.0057945 0.0247251 0.0404236
0.0481499 0.0202709 0.019998
-0.0368801 -0.00792054 0.0174817
-0.0223908 0.0274764 0.033481
0.0268642 0.0158116 -0.0162899
-0.0456259 0.00418301 0.00466459
-0.0231219 -0.0249304 0.00649236
-0.0202333 0.010454 0.0288672
-0.0250925 0.0178128 0.0285385
0.044082 0.0203639 -0.000733465
-0.028297 -0.0130283 0.0192019
-0.00525359 -0.00607671 0.0463995
-0.0373491 -0.0129215 -0.00974063
0.040861 0.00766043 -0.00868046
0.00316229 0.0183109 0.0449228
0.00233091 0.029318 0.0390628
-0.0246238 0.021192 -0.0371676
0.00838078 -0.0229077 0.0172517
-0.0185355 0.0283747 0.0261683
-0.0377568 -0.00979014 -0.0178699
-0.0416079 0.00769653 0.0091984
-0.00242276 0.0175681 0.0347001
-0.0320723 0.0321069 0.0127765
0.0400762 -0.00845281 -0.0238972
0.00112784 0.0274659 0.0288432
-0.021026 -0.00805797 -0.0374743
-0.00312156 -0.0190315 -0.0426152
0.0184147 -0.0112137 0.00644632
0.0117062 -0.0199539 -0.00170891
-0.0180439 0.00502353 0.0391697
0.0108835 0.0338475 0.0263777
0.0310538 -0.00938427 0.0109927
-0.0212019 0.0131095 0.0323374
0.00496487 -0.0223393 0.0136488
-0.0277391 0.0343383 0.0158546
-0.0383714 0.0120731 -0.0315619
0.0272667 -0.015202 0.0255676
-0.0175067 -0.00838296 0.030506
0.0441311 0.0229505 0.00111236
-0.0406876 -0.00287386 -0.0266142
0.0113549 -0.0194852 0.00467374
0.0289475 -0.00594316 -0.0138314
0.0049157 0.00416351 0.0458441
0.0332 -0.00132436 0.00737151
0.01391 -0.0121484 -0.00620285
0.0212 0.0157316 0.0487175
0.0311062 -0.00864245 0.00996808
-0.0425305 -0.00768061 -0.000648266
-0.0133065 -0.0173338 0.0306033
-0.0216297 0.0113297 0.0321363
-0.0311584 -0.0184121 -0.020452
-0.046 0.00163831 0.00354647
-0.0275254 0.0120912 0.0295474
0.0198227 0.0158386 0.0146846
0.0362 0.0149329 0.0236113
-0.0232722 -0.0177399 0.0201543
0.0499051 -0.000436467 0.0164632
-0.0416771 0.0249607 0.000113115
0.0119134 0.0120943 -0.0201954
0.0360431 0.0351636 0.00742853
-0.0444214 0.0175601 0.00563717
0.0553899 0.0117778 -0.0126152
0.0139711 0.0220993 0.0352855
0.0401759 -0.014988 0.00636853
0.0184393 0.025688 0.0235193
0.0141893 0.0281105 0.0296235
-0.0400917 -0.00229742 0.0128079
-0.0345705 0.0299953 -0.0284821
-0.023056 0.0194304 -0.0466792
0.00834694 0.020502 0.0311498
0.0100761 -0.0235084 0.00910001
-0.0062838 -0.0155226 0.0314332
0.0121131 0.00874172 -0.0193945
0.0194601 0.00865889 0.0345691
-0.0311783 -0.0130479 -0.0331577
0.0162518 -0.0113438 -0.0140511
0.00919792 -0.0202459 0.0244687
-0.0393518 0.00231136 0.0200307
0.0198483 -0.00935299 0.00112685
0.0155504 0.0165925 0.0261133
0.0565453 0.00481899 -0.0104701
0.032845 -0.0031013 0.0334053
-0.0313246 0.0321368 -0.0279176
0.0201953 0.010319 0.0190017
-0.0427424 -0.00221553 -0.00868198
0.0223206 0.00283332 0.0164
-0.0170392 -0.0256448 0.010947
-0.025657 0.0113163 -0.0474464
0.0346045 0.0184356 0.0147653
0.0234059 0.0140351 0.0144833
-0.0177636 -0.009331 0.0297255
-0.00493526 -0.0193078 0.0272548
-0.0106307 -0.00582386 0.0327757
0.0554221 0.00460127 -0.012357
0.0277875 0.0304498 0.0226746
0.0243667 0.0337833 0.0136994
0.0509472 0.00501981 0.0189432
-0.0416472 0.00581372 0.0165221
-0.0356833 0.0339571 -0.00425247
-0.0360682 -6.86047e-05 0.00207197
-0.0445475 0.00777141 0.0100414
-0.00826382 0.0307047 -0.0443037
0.00384526 -0.0110813 0.0274545
-0.00882957 -0.0165361 0.0260874
-0.0283559 -0.0204451 0.0220293
0.0176357 0.0357773 0.0371782
0.0352828 0.00724639 -0.0313236
-0.0295087 0.0122298 0.0288894
-0.000540798 0.0360136 0.0337367
-0.0371579 0.0228784 -0.0312157
0.0436702 -0.0129718 0.0181389
-0.0418933 -0.0094413 -0.0186927
-0.0031851 -0.015576 -0.0465341
0.0245811 0.0160007 -0.0172911
-0.0408833 0.00861225 -0.00448797
-0.0240688 0.0328855 0.0219116
0.0469077 0.0221189 0.00746473
-0.0336 -0.00156979 0.0197156
-0.00307565 0.0337749 0.02455
-0.0229123 -0.00317236 0.0368035
0.0234607 -0.00401053 -0.0162316
-0.0321921 -0.0174492 -0.0160235
0.0185188 -0.0230865 0.0308771
0.0219324 -0.0053431 -0.0511142
-0.0367036 0.0077778 0.021975
-0.00687879 -0.0103298 0.0299142
0.0247933 0.0340023 0.0199968
0.0217837 -0.0234788 0.000130557
0.0237689 0.0158891 0.00283014
-0.0371028 0.0298653 -0.00926392
0.0148184 -0.0177805 0.0156337
-0.0243933 -0.0145353 0.00785035
0.01435 -0.0210862 0.0034944
0.0178291 -0.010194 0.0280591
-0.0350621 0.0066354 0.0237333
-0.0205105 0.0169899 -0.0487748
-0.0238831 0.0184748 -0.0375568
0.0226301 0.0202151 0.00732356
-0.0395227 -0.0121534 0.00107794
0.0417762 0.00228057 -0.00780926
0.0202626 0.0229239 0.00300417
-0.0150298 -0.0219257 -0.0355677
-0.0278945 -0.021844 -0.0190853
0.0435596 0.0283208 0.00918739
0.0238 0.0333102 0.0263537
0.0219833 0.0345957 0.0273905
0.03025 -0.0122853 0.0247122
0.00936725 0.0257155 0.025331
0.0171914 0.00735649 -0.0324232
-0.0076738 -0.00117999 -0.0535066
-0.00861762 -0.0222512 0.0192667
-0.0249086 0.0131388 -0.0385115
-0.0185795 -0.0112937 -0.0448861
0.0292958 0.0292584 0.0281704
0.0212785 -0.00849175 0.00744464
0.0508863 0.0136372 -0.0193876
0.0193752 0.0239588 0.0118211
-0.0355184 -0.0139393 -0.0124531
0.00476668 0.0374925 0.00200997
-0.0446333 0.00139987 -0.0223027
0.0185774 -0.0194081 -0.00635632
0.0217793 -0.008332 0.00912677
0.0325071 -0.00572676 0.0307795
0.00195774 0.00147272 0.0340537
0.00988937 0.00513817 -0.0185211
0.0319469 -0.0109854 -0.00894406
0.02725 0.0292461 0.0315455
0.00737648 -0.0150302 0.0248396
0.0563214 0.00966185 -0.0106542
0.0212191 -0.0094871 0.00760926
-0.0340259 -0.0142006 -0.0248767
0.0410027 0.032058 0.0190521
-0.0247553 0.00854509 0.0311475
-0.0434578 0.019451 -0.00711278
0.0476144 0.011642 -0.0238219
-0.0268232 -0.0202864 -0.0266158
-0.0222333 -0.0278054 -0.00701951
-0.0220273 0.0375735 0.0237074
-0.00418908 0.0281676 0.0449557
-0.00868227 -0.0168506 0.0256488
0.00135667 -0.0193017 0.0334452
-0.0285644 -0.0013353 0.028825
0.0415138 0.0310533 -0.0168651
-0.0340379 0.0211526 -0.0259553
-0.0312945 -0.000452649 0.024656
-0.0332585 -0.00680606 0.020058
0.00589129 -0.0228935 0.0100894
0.0538866 0.0121936 -0.0157117
-0.00853617 0.0318618 0.0290583
-0.0192 0.0284822 -0.037547
0.0355821 0.00216515 0.0274052
0.0228286 0.0174479 -0.00584674
-0.0101895 0.0103966 0.0505488
0.0288733 0.0292449 -0.0257537
0.0184953 -0.00772796 0.0119924
-0.0318717 0.0293659 0.0138382
0.027362 -0.0100923 -0.0121076
-0.02004 -0.0121089 0.019912
-0.0350425 -0.0103868 0.017513
-0.041109 0.000526375 -0.0087221
0.0389866 0.0291416 -0.0207924
0.0491104 -0.0031498 0.0146116
0.0207522 -0.00850464 0.0236132
-0.0379337 0.00529366 -0.0372968
0.00921082 -0.0219929 0.00734641
-0.0157889 -0.0185498 -0.0384528
-0.0105087 -0.00219302 0.0343048
-0.0408376 0.0141983 0.0112119
-0.0461308 -0.00584003 -0.00440467
0.0179352 0.0185778 -0.00613963
-0.023908 0.0283132 -0.0394187
-0.0340893 -0.0149454 0.0137723
0.00940971 0.00125755 0.0307886
-0.0411205 -0.0119269 0.000260953
-0.0294151 0.0149537 0.0279919
0.0104463 0.0365215 0.0209565
-0.0268347 0.0149525 -0.0330942
0.00121051 0.016665 0.0367904
-0.0378298 0.0166741 0.0211019
-0.0309449 0.0217891 0.0227786
0.00931167 0.00861297 0.0437717
-0.00526705 -0.0210028 0.0217851
0.0307141 0.019394 -0.013535
-0.0172 -0.0203187 -0.0297301
-0.0320625 0.0124826 0.022701
-0.0430528 0.00945811 -0.0196304
0.0208161 -0.0199452 -0.00422549
-0.0123611 -0.00467732 0.0384676
-0.042625 0.0021176 0.0108204
-0.0339681 -0.0122296 0.0119543
-0.0275216 0.0248249 -0.0410645
-0.0107893 0.0328152 0.0298082
-0.0168352 -0.00862847 -0.0422302
0.0314909 -0.000416247 0.0371068
0.0435822 -0.00151415 -0.00399372
-0.0114738 -0.0111756 0.0300772
0.031125 0.00135789 0.0381366
-0.0221458 0.0351882 0.0178907
-0.024253 0.027617 0.0246223
0.034575 0.0192737 0.0226191
0.0193669 -0.0013104 0.0325556
0.00981222 0.019062 -0.0204047
0.00411325 0.000186667 0.0321
0.000459056 0.0292084 0.0284096
-0.000924679 -0.0196723 -0.042421
0.00700487 0.0388694 0.0172672
-0.00684885 0.0230309 0.03392
0.0129465 -0.018292 0.024451
0.00378027 -0.0164384 0.024295
-0.0141128 0.00144023 0.0341334
-0.0362613 0.0271964 0.00700828
0.0212752 -0.00492359 0.00270024
-0.0427727 0.0201706 -0.0222591
0.0468285 0.0112568 -0.000678143
-0.0186661 0.000531937 0.0333988
-0.0148008 -0.00195565 0.0340286
0.0371191 -0.0201053 0.0199322
0.0167935 0.0141147 0.0237667
0.00776843 -0.0212692 0.00289467
0.0139607 0.0236204 0.0347194
0.03506 0.00680411 0.0307441
-0.0274439 0.00954071 0.0302514
0.0193264 -0.0120388 0.0065007
0.0492347 0.00686586 0.00474356
-0.04288 0.00222075 -0.019623
-0.0348338 0.00593005 -0.0412861
-0.0127005 -0.00372411 -0.0508021
-0.0219967 0.036507 0.0171626
0.000459394 -0.0216796 -0.0401024
0.0316273 -0.00222539 0.036225
0.0137312 0.0357229 0.0168169
-0.029202 0.022192 0.00845924
-0.00522844 0.00657624 0.0357216
-0.0451929 0.0209905 -0.0142142
-0.0186953 0.0202998 0.0319879
-0.0175484 0.0166375 0.0377924
0.0330167 0.00232635 0.00562075
0.0238419 0.0141632 0.014
0.0344273 0.0186022 0.0136601
-0.0317863 0.00583741 0.0254344
-0.0425698 0.003205 -0.0150339
0.0221417 -0.0130834 0.0388837
0.021587 0.0217851 0.00761031
-0.00316226 0.00951079 0.0392741
-0.038025 -0.0038459 0.0143932
-0.00153774 0.0122374 0.0350618
-0.033925 0.0210618 -0.0349647
0.00105399 0.00329037 -0.0178411
0.0396745 0.03201 0.00825819
-0.0161088 -0.00160597 -0.0504987
0.0215642 0.0114534 0.0120065
0.045253 -0.0173352 -0.00789837
0.0344182 0.0176091 0.0280819
0.0361121 -0.0228692 -0.00967808
0.01565 -0.0254926 0.0281046
-0.02911 -0.0154702 -0.0321514
-0.0440256 0.0186726 0.00287183
0.0207114 0.0220513 6.01385e-05
-0.0346217 0.0354381 -0.0119665
0.0185668 0.0093942 -0.0117587
0.021834 -0.000360506 0.00014905
-0.0295881 0.0213052 0.0245523
0.0328286 -0.00937591 0.0191432
-0.0235918 -0.000305665 -0.0391747
0.0216157 -0.00121728 0.000227197
0.014528 0.020035 -0.0172119
-0.0258956 -0.0253694 -0.00522416
-0.0420262 -0.00580785 0.0091799
0.0120275 0.0037836 -0.0309013
0.0218264 0.0122051 0.0110265
-0.0400106 -0.00567055 -0.0248992
0.0527755 -0.00516081 -0.0132283
0.0145412 0.00492659 -0.0188806
-0.0241427 -0.0221062 0.0109642
0.0036103 0.0298765 0.0292532
-0.0381286 -0.00578683 0.0135306
-0.00418324 -0.0137796 0.0272006
0.0103041 0.0068463 -0.0565683
0.030525 -0.0093492 0.00923176
-0.04485 0.0122267 -0.0235215
0.0249308 0.00406812 0.0100186
0.0023022 0.00957979 0.0336
-0.0256444 0.00505219 0.0313492
0.0247366 0.00862211 -0.0088257
-0.0166419 -0.0109198 0.0348962
-0.0214679 -0.0158539 -0.0180896
0.0031149 0.024823 0.02966
-0.0196368 0.0222079 -0.0422177
-0.027825 0.0276656 -0.0360729
0.00100098 0.00684098 -0.0514838
-0.0345624 0.00137334 0.0228471
0.0031348 0.0248345 0.0308489
0.0429213 0.0341949 0.0199419
0.0245518 0.00105469 -0.0172751
0.0103074 0.0211839 0.039297
-0.0238961 0.0329958 0.0305858
0.027295 -0.0100898 0.00393065
0.0289086 0.0302861 -0.00612893
-0.0266026 0.00944572 -0.0473629
0.00400412 -0.0207447 -0.0418026
-0.0310289 0.00147677 0.0255455
0.0104181 -0.00757215 0.0389289
-0.00594255 0.0212538 -0.051904
-0.028159 -0.0190803 -0.0274271
0.0075762 0.0263825 0.0387824
0.0353199 -0.0114335 -0.00630992
0.0172111 0.0392471 0.0388355
-0.00322476 0.00495566 0.0482521
0.0299242 0.00932311 0.00685001
-0.038181 0.0158697 -0.0349274
-0.00401447 -0.000653599 0.0484658
-0.0205353 0.005896 -0.0458435
0.0214395 0.00308094 0.0181
0.00641383 0.0210576 0.0419481
0.00383833 0.00127076 0.0360337
-0.0109668 -0.0143022 0.0419951
0.0309317 0.00502586 -0.0154747
0.0311857 0.0223348 0.0317802
-0.0010302 0.0233285 0.0347739
-0.0411358 0.000474674 -0.0267988
-0.00404749 -0.0111437 -0.048923
0.02351 -0.0166091 -0.0232999
0.00605511 -0.0205574 0.0161426
-0.0110079 0.0216811 -0.049763
0.00950907 -0.0194122 0.0108778
0.0299568 0.0343929 -0.0198088
0.00849911 0.0299686 0.0326863
0.0134541 0.0354347 0.0181539
0.0503184 0.00505204 0.00922065
0.0298229 -0.0174842 -0.0215508
0.0501219 0.0112526 0.0261804
-0.0160961 -0.00929877 0.0359089
-0.042229 0.0140327 0.00554504
-0.00343607 0.0012887 0.0348465
0.035431 0.0327543 0.0038826
0.0362444 0.0014011 0.0191335
-0.0335667 -0.00858802 0.0157121
-0.0464941 0.0165855 -0.00256854
0.0325249 0.0212151 -0.0115763
-0.0349199 -0.0113723 -0.028601
0.032765 -0.00559758 0.0298254
0.037198 -0.0228194 -0.00739127
0.00846919 -0.0158745 0.0339309
-0.0359483 -0.0048791 0.0173619
-0.0443 0.00586385 -0.0247306
0.0247417 0.0313668 0.00813558
-0.00500841 -0.0185348 0.02385
-0.0238245 0.0356704 0.0292281
0.0343054 -0.00694003 -0.0282871
-0.00132182 0.0142262 -0.0560481
0.0211561 0.00409998 0.0173541
-0.0288109 0.0268384 0.0200855
0.0253041 0.0319936 -0.0231398
0.0506679 0.0145758 -0.0195818
0.0162519 -0.0112235 -0.0043836
-0.0356133 0.0185314 0.0172067
0.023842 -0.0256676 0.0055122
-0.0323051 -0.00411093 -0.0396237
0.0494924 0.0104327 0.00740331
-0.00385451 0.00581676 0.0484096
0.0245857 -0.0165541 0.0289127
-0.0223857 0.0156769 0.0322615
0.0436285 0.0237963 -0.0214898
-0.0257988 0.00510118 -0.048069
0.0453215 0.0120768 -0.00323833
0.0239193 0.0176274 0.00907054
0.027419 0.0166725 -0.00159086
-0.0301569 0.0193452 0.0260856
0.00753475 -0.00952712 0.0283295
-0.026563 0.017647 -0.0445914
-0.0266567 -0.0175828 0.0181491
0.0181695 0.0290887 0.0218987
-0.0159471 0.0346078 -0.0427789
0.0342068 -0.0220287 0.0108979
0.0118045 0.00549344 -0.0309049
0.0184935 -0.0074935 0.0298656
0.00715 0.00429671 -0.0175778
0.00370384 0.030495 0.0256899
0.0185523 -0.0129757 0.0208808
0.0245333 -0.0088125 0.00760001
0.0280941 -0.00575605 -0.0303479
-0.0421395 0.0149139 -0.021379
-0.0402114 -0.0146214 -0.0034643
-0.0301665 0.0346505 0.0152614
-0.0173908 -0.00650518 -0.0446537
0.0235667 -0.0189911 0.0137944
-0.0285 0.0385269 -0.0188547
-0.00856768 0.0248801 0.0307778
0.0064 -0.0221057 -0.00116042
0.01875 0.028619 0.0440592
-0.029 0.0367858 -0.0365447
-0.031866 0.0319257 0.0163972
0.0285413 0.021167 -0.013405
0.0322786 -0.00755064 0.028109
-0.00303243 0.0386512 0.0302523
0.0101832 -0.021248 0.0193621
0.0122014 0.0362586 0.0255416
0.0271629 0.0189855 -0.0314216
0.0103616 0.0271643 0.0224367
0.02213 0.00780936 0.0488543
-0.00364343 -0.0143116 0.0320103
-0.0445465 0.0130507 0.00918073
0.0510152 -0.00391308 -0.0169172
0.0344084 0.00695933 -0.013863
0.0235985 0.00682454 0.0263012
0.0239937 0.0158056 0.0227417
-0.0221089 0.0397834 0.0216991
0.0334375 -0.00671671 0.0137539
-0.00314888 -0.0254969 -0.031957
-0.044241 0.0157343 0.00824244
-0.0139961 -0.00127001 0.0390771
0.0102282 -0.00569191 0.0292128
-0.0213017 -0.0265485 0.00390438
-0.0213721 0.0311671 -0.0395324
0.0331917 -0.00761243 0.0145401
-0.0151078 0.000509713 0.034179
0.0206471 0.0191084 0.0202
0.0162231 -0.0165645 0.014523
0.0526977 -0.0100754 -0.00433144
-0.0402427 0.0139353 -0.00529769
-0.0229498 -0.0100743 0.0277498
-0.0247831 0.028136 -0.0227574
-0.0347949 -0.0128842 0.0154645
-0.048225 0.00847927 -0.0142229
0.039758 0.0112882 -0.0097621
0.00298635 -0.00878678 0.0329553
-0.0295144 0.0392155 -0.00694557
0.0361889 0.034657 -0.0221997
-0.04225 0.0231874 -0.0197524
-0.0420812 0.00957035 -0.0141534
-0.0067703 0.00595734 0.0398417
-0.0412639 0.0104204 0.0101575
0.00764559 -0.00492484 0.0291467
-0.000765705 0.000496859 0.0336802
-0.0262625 0.0401372 0.000151054
0.052707 -0.00929986 -0.00548077
0.0191111 -0.00578741 0.01765
-0.0014365 0.0284322 -0.0491377
0.00819994 0.0125574 0.0317542
-0.0114917 -0.0132095 0.0289138
0.0239034 -0.00312827 0.0154982
0.0327126 0.0113667 -0.0145401
0.000251306 -0.016502 -0.0430575
-0.0362818 0.000585999 0.0233248
0.0120167 0.0246704 0.0247245
0.00175 0.0247371 -0.0177224
-0.0383143 0.000381088 -0.0305537
0.018325 -0.0207775 0.0075385
-0.0319929 0.0103761 0.0255038
0.0177007 0.00772583 0.0238
0.0247286 0.0279926 -0.0101689
0.0237298 -0.0247426 0.0028346
0.0235838 0.0185366 0.0209517
0.00611203 0.0273742 0.0386136
-0.0410228 0.000409858 -0.0178535
0.00905132 -0.0202817 0.01475
0.00117119 -0.000278481 0.036765
-0.0381857 -0.00143372 -0.0301811
0.00271772 0.0349753 -0.0102261
-0.0414036 -0.00320181 0.0137727
-0.0386805 0.00505053 -0.0360034
-0.0423213 0.0022908 -0.016036
-0.040103 0.0256646 0.00649546
-0.0232946 -0.0176055 0.0192289
0.0244801 -0.0179695 -0.022124
0.0423796 -0.00393089 -0.0257171
-0.0231214 0.00496368 0.0316025
0.0157167 0.039286 0.035357
-0.0223803 0.00695657 -0.0432434
0.0203375 0.0358352 0.0300803
0.0154136 0.0211349 0.020007
0.0292575 -0.0113026 0.00920187
-0.00306362 -0.0184563 0.0237
-0.0329513 0.0286378 -0.0246733
-0.0103927 0.00138932 -0.0530324
0.0217 0.0364544 0.0235916
0.0215429 0.00231377 0.0298867
-0.0193121 -0.0226735 0.0156812
0.018169 0.00372984 -0.0326728
0.0174725 0.0132409 -0.0134132
0.0421347 0.0303753 0.0210937
0.0365379 -0.0202437 0.0109605
0.0289182 0.00951386 -0.000727335
0.0247 0.001014 -0.0045311
0.00639527 0.0348195 0.0212204
-0.0332276 0.0122275 0.0253286
-0.0367526 0.0040486 -0.038587
-0.0310306 -0.000339111 0.0262167
-0.0148029 0.00237039 -0.0517206
-0.0176191 -0.00853903 -0.0474828
0.005555 -0.0230089 0.012072
-0.0452429 0.0165418 0.00378693
-0.0364495 0.0141577 0.0193185
-0.037788 0.0232454 -0.027664
0.0306833 0.0274758 0.0236339
0.0235 0.0328475 0.0298509
-0.0188743 0.0349356 0.0245522
0.0319476 0.0346701 0.00195482
0.00827473 0.00769233 -0.0295199
0.0490926 0.0176869 0.0199309
0.043336 0.0221879 -0.0234341
0.0189146 0.0221 0.01285
0.0231518 0.00953535 0.00830319
0.0154453 0.00863898 0.027167
0.0355354 -0.0102758 -0.00696196
0.02467 0.0195908 0.0435105
0.00608371 -0.0183097 -0.00622299
-0.0171026 -0.0149486 0.0328758
0.0355989 -0.0166197 0.00113765
-0.0376833 0.0112199 -0.0325213
-0.04394 -0.00503666 -0.0197503
0.00112617 -0.0209309 0.0209344
0.0153981 -0.00678867 -0.0287885
-0.0294797 -0.0177821 -0.0270437
-0.0297215 0.00144169 0.0273424
0.0164 -0.025108 0.023084
-0.0349511 -0.00227193 0.0236511
0.0108919 -0.000362103 -0.0179918
0.0541338 0.00546683 -0.01503
-0.0199216 0.036076 -0.0380949
0.0300893 -0.00748229 0.0334223
-0.0346853 -0.00402101 0.0207692
0.0292557 0.0265221 -0.0106344
0.0473248 0.00882563 -0.023977
0.0163867 -0.00505128 -0.0299722
0.0266619 0.031213 0.0209384
-0.0380182 0.0177551 -0.0178995
-0.0294541 -0.00219138 0.0281173
0.0203684 0.0176138 0.0309143
-0.0359777 -0.0013315 0.0201706
0.00368189 0.0183788 0.0322865
0.00855153 0.0403308 0.0216667
0.0366333 0.0112784 0.019938
0.0436687 0.00239121 -0.0266694
-0.0298451 0.00687469 -0.0239629
-0.0363352 0.0255727 0.0154655
9.03881e-05 -0.0022352 0.0327333
0.02981 0.0207844 -0.0303628
-0.0345579 -0.0175173 -0.00868937
-0.043375 -0.00921866 -0.0150313
0.0342528 -0.000343169 -0.0310158
-0.0178107 0.0340226 -0.0240886
-0.0390487 -0.010029 -0.0102343
-0.0427256 0.00139857 -0.0168699
0.0247919 0.0105317 8.16807e-05
-0.03435 0.015483 -0.0372709
-0.03112 0.00495747 -0.037616
-0.0377859 0.0249103 -0.0243528
0.0513603 -0.00824917 -0.0113198
0.0464051 -0.00756766 0.0244593
-0.0176697 -0.0190464 0.0259633
0.0241173 0.0149075 0.0226609
0.0351108 0.022863 -0.00954186
-0.0360141 0.00233467 0.0238717
0.0130076 0.0348228 -0.00289111
-0.0415828 0.0217883 -0.0166765
0.00568165 -0.0260093 0.00735
-0.0230013 0.0329061 0.0198866
0.00308172 -0.0271658 0.0132623
-0.0244204 -0.0209243 0.0232213
0.0270177 -0.0201433 -0.0187729
-0.046 0.0180922 -0.0156743
-0.0408538 -0.00544615 0.0125392
0.0203058 -0.00412563 -0.000777846
0.0154052 -0.0176113 0.0184205
-0.043256 0.0066874 -0.0202785
-0.0300359 0.0398941 -0.00775688
0.0109203 -0.0194261 0.0136
0.0436535 -0.0128499 0.01895
0.0501976 0.00225167 0.0110357
0.0496916 -0.000426119 0.0109516
0.0013532 0.0347143 0.0231211
-0.00612267 0.0222448 -0.0514288
0.00454627 0.00857258 0.0462506
0.0501487 0.000548915 0.015535
0.025625 0.0241012 -0.00139793
-0.00173821 -0.0188026 0.0230333
0.0505349 0.0032405 0.0163735
0.0270833 -0.0138975 0.00925585
-0.0422934 -0.0078088 0.00300275
0.031727 0.000962777 -0.0318469
0.00927603 -0.0161191 0.0329335
-0.021411 -0.00934343 0.0287117
0.0146753 -0.0273775 0.00301834
-0.0425681 0.00321134 0.0146616
0.00376417 -0.00602317 0.0316181
0.0521843 0.00379153 -0.0178181
0.0437894 0.0150327 -0.00447798
-0.0084259 -0.0242463 -0.0293144
0.00766749 0.0338214 0.0307529
0.0162467 -0.0112452 -0.00345443
0.0119078 -0.0219985 0.00845
0.0103967 0.0259028 -0.0513822
-0.02469 0.00601016 -0.0393411
0.0300312 0.0192399 0.00304212
0.00666902 0.0193799 0.03061
0.0022528 -0.0219252 0.030728
0.027295 -0.0111645 0.00488567
0.0431743 0.00778896 -0.00616984
0.0275182 -0.0104167 0.00458084
-0.0398123 0.00512852 -0.0339145
0.00691111 -0.0138727 -0.010558
0.0177232 0.0131021 0.0362691
-0.0338571 -0.0059939 -0.0323211
0.0328167 -0.00759694 0.026286
0.0493441 0.013975 0.00928323
-0.00411236 0.0338202 -0.0437445
-0.0310167 -0.0221818 -0.0123985
0.0564274 0.00322183 -0.00968369
-0.0389858 0.0157166 0.0196745
0.0246667 0.0319078 0.0128492
-0.0341087 -0.00427975 -0.0370221
0.0337633 0.0113331 0.00639857
0.00981462 -0.0204546 0.0226006
-0.0344225 -0.0172487 0.00577848
-0.0202958 0.011329 0.0386512
0.0490373 0.00233044 0.00568505
-0.00331797 -0.01907 0.0268427
0.0110744 0.0168139 0.0410686
-0.0301659 0.00863592 0.0279517
-0.0139261 -0.00390463 -0.0501936
-0.0410011 -0.00393173 -0.0123886
-0.04515 0.00236031 -0.0220328
0.0353 -0.00216129 0.0164722
0.0194967 -0.014163 0.01
-0.0294979 0.00409276 0.0281548
-0.0309862 0.0304123 -0.0226696
-0.0263923 -0.0057012 -0.00847225
-0.0326938 -0.0066931 0.02165
-0.0233437 -0.0230626 -0.0225675
-0.046 -0.00647796 -0.00859102
0.0359231 0.0113597 0.0272429
-0.0184899 0.003159 0.0340242
0.00797379 -0.017851 -0.0451337
-0.0293599 0.0356105 -0.00443297
0.000957189 -0.0272268 0.0210221
0.0190985 0.00676913 -0.0190871
0.0262732 0.038762 0.0011066
0.0129514 0.0120549 -0.0573028
-0.023975 0.0208286 -0.0409312
-0.00794084 0.0113324 0.035902
0.0343823 -0.0148481 -0.0223216
0.0515774 0.0243542 -0.0106824
0.0256667 0.0329099 0.019132
-0.00721638 -0.0164844 0.0391658
0.0145313 0.0136215 -0.0312359
-0.0408401 -0.00481596 -0.0204761
0.044594 -0.0102102 0.0199724
-0.0242685 -0.0114284 0.0329486
-0.0376739 -0.00788465 -0.026987
-0.0251533 0.0340773 0.0168278
-0.0284437 -0.0105007 0.0242039
-0.0194417 0.0166561 0.03321
0.00563224 0.0311149 0.0244506
0.0239384 0.0168356 0.0218375
-0.0121833 0.0240078 0.03018
0.0174778 0.0365651 0.0370201
-0.0231936 -0.0140251 0.00697246
0.00226332 0.022918 0.0429299
0.013771 -0.00934272 0.0225366
-0.0258264 0.0202316 -0.0330713
0.0215315 0.00860134 0.0163208
-0.0377503 -0.00975033 -0.0186813
0.0163 0.0183329 -0.0306573
0.00848685 0.0338398 0.020069
-0.0358532 0.0148751 -0.0385474
0.0199794 -0.0115499 -0.0273783
-0.0483437 0.00134537 -0.00967184
0.0490613 0.0157117 0.00933918
-0.0352 -0.0190679 -0.00377864
0.03096 0.0139643 0.0379537
-0.0109003 -0.00551571 -0.0507201
-0.0166019 -0.00847308 -0.0481448
-0.0238327 -0.00783138 0.0283983
-0.0272017 -0.0127312 -0.0389853
-0.0247942 0.0140526 0.0370213
0.0138365 0.0158163 -0.0571877
0.0202867 0.0365822 0.0290957
-0.0416333 -0.000331715 0.0115869
-0.0141929 -0.0269195 0.0103964
0.0140822 -0.0131301 0.0182642
0.00406381 -0.0208085 0.0179799
-0.025003 0.00688785 0.0316186
-0.0279141 -0.0133855 0.0221514
0.0149331 0.0213118 0.0210061
-0.0193533 0.0246818 0.0288579
-0.0236622 0.0406519 0.0204741
-0.0374804 -0.0105033 0.00836661
-0.0104257 0.039031 0.0207
0.0395942 0.0341195 0.00117909
-0.0365433 0.0183408 0.0203
-0.0421354 -0.00129791 -0.0196039
-0.0204413 0.0313262 -0.0400391
-0.0321267 0.0203953 -0.0403417
-0.0339594 -0.0129705 0.0164206
0.00999314 -0.0209338 0.00214018
0.00509506 -0.0248528 -0.000474886
0.0195934 -0.0265485 0.00373668
0.0310512 0.0257069 0.0226932
0.00668991 -0.0120603 0.028106
-0.0166436 -0.0266814 0.00869281
-0.0258426 -0.00872932 -0.00805831
0.00547671 -0.0122792 -0.0131141
-0.00321338 -0.0212212 -0.0391751
-0.0369392 -0.013336 0.0110695
0.0363654 -0.0133537 -0.00274664
0.0158861 -0.000637597 0.0372783
0.0262597 -0.0166208 -0.0232761
-0.0423185 0.00841314 -0.00950227
0.0238 0.00389502 -0.00538736
-0.0320168 0.0318344 0.0136053
0.0390083 -0.0173622 0.00842437
-0.0281 -0.00744802 0.0217888
-0.0169051 -0.0193166 0.0208279
0.0500028 0.00594118 0.0228474
0.00237164 0.0113081 0.0372973
0.0149202 0.00683532 0.0281399
-0.0352 0.0098059 0.0196659
-0.0196322 0.0348587 0.0200481
0.0502736 0.00136619 0.0145907
-0.0384068 0.0255806 -0.0141275
0.0446827 -0.00941433 0.0235761
-0.0313271 -0.0194662 0.00931496
-0.033 0.0353764 -0.02032
0.0326325 0.00636617 -0.0322551
0.0439269 0.0283831 0.0208837
-0.0247836 0.0304476 -0.0369736
0.0360875 0.000546561 0.0163483
0.0216525 -0.00580728 -0.0158969
-0.0275317 0.00383692 0.0371804
-0.000433336 -0.0219784 0.01826
0.0155491 0.0203887 0.0219788
0.0211534 -0.0120477 0.00768001
-0.00177916 -0.0245539 0.0295816
-0.00402989 -0.0156973 0.0264003
0.0164081 -0.010288 -0.00341968
0.0502466 0.00311567 0.0100498
0.0369417 0.00770149 0.0181554
-0.0114324 -0.00921296 0.0295985
-0.00158429 0.0166812 0.037663
-0.0477 0.00678883 -0.000611076
0.018149 0.0190126 -0.00883507
0.0247446 -0.00759782 -0.0141954
-0.0432427 0.00680102 0.00186136
-0.0329395 0.0022703 0.0242195
-0.0119647 -0.00209002 -0.051705
-0.017979 0.0274237 0.0333126
0.0424778 0.0122591 -0.00709641
-0.0418264 0.00235098 0.0055273
0.0352073 -0.0228259 -0.0113974
0.0351375 0.0104292 0.0100774
0.010452 0.0168574 -0.0232132
0.0266167 0.0231285 0.0399252
0.0110614 0.0166601 -0.0558973
0.0156202 -0.00858804 -0.0512659
0.00321581 0.0237173 0.0302083
-0.0418077 0.0129939 0.0118098
-0.0218547 0.00330454 -0.0436161
-0.0373554 -0.0158425 -0.00145361
-0.0193495 0.00502648 0.0387573
-0.0142008 0.0311307 0.029252
-0.0294477 0.0371389 0.00745225
-0.0377116 0.00487591 -0.0373942
0.014962 -0.01469 0.01465
0.0186766 0.0201388 -0.00674873
0.0217213 0.002104 -0.0326658
0.00762903 -0.0236741 0.00470049
0.0284067 0.0230904 0.0362232
0.0406356 -0.0175075 -0.0151445
0.032586 0.000344975 -0.0316431
0.016676 0.00594147 0.0246714
0.0237528 0.0121736 0.00564864
-0.0301833 -0.0231274 -0.0115016
-0.00189549 0.0345877 0.0379402
-0.0391674 0.00936325 0.015547
-0.0406333 0.0289527 -0.0141124
-0.0331 -0.00686373 -0.0323836
0.0265133 0.00793215 0.0116
-0.00768624 -0.00615013 0.0320871
-0.0249517 -0.0172769 0.0198419
0.0300625 0.025658 0.0289625
0.0331375 0.0103764 0.0047333
-0.0421981 0.011328 0.00643442
0.0360578 -0.00872617 -0.0261245
-0.0406328 0.0163891 -0.028222
0.00379813 0.00500724 0.0464214
-0.00225103 0.0174894 0.0467456
-0.0368075 -0.0060244 -0.00244756
-0.03626 0.0344777 -0.00720916
-0.0384086 0.00230143 0.0172723
0.0295306 -0.0258612 0.0144819
-0.0272986 -0.0175152 0.0146366
0.0419138 0.0212512 -0.00344121
0.02231 0.0373952 0.0192364
0.023548 0.00825763 -0.0331411
-0.00608313 -0.0110428 0.0302095
0.0397763 -0.0211504 -0.00867391
-0.0329188 0.00398535 0.00989707
-0.0438273 0.0184283 -0.0223881
0.0149312 -0.00400057 0.037105
0.0323667 -0.00310883 0.0342958
0.0328438 0.0247721 0.0155181
0.0445335 0.016655 -0.0249596
-0.0141588 0.00588239 -0.0513214
-0.0109081 -0.0110762 0.0350499
0.02305 -0.0021386 -0.00487134
0.0131117 0.0195837 0.0380599
0.00948163 -0.0168377 0.019085
0.0171369 0.00238536 0.0236947
-0.0275979 0.0272367 -0.038999
-0.0319948 0.0335855 0.0120517
0.0127665 -0.0183634 0.00105855
0.0262233 0.0290745 -0.00747976
0.0236487 0.018574 0.0191281
0.0205366 -0.0110938 0.0110741
0.00569166 0.0256618 0.0283371
-0.0266267 -0.0210523 0.00821183
-0.0196446 0.0348911 0.0209321
0.0382975 0.0374501 0.00922657
-0.00465597 -0.0259814 0.0292644
-0.00131499 0.0355486 0.0352777
-0.00569071 0.0245486 -0.050639
0.0118317 -0.000360188 -0.0177401
-0.0421751 -0.00759753 -0.00524946
0.0287 0.00504135 0.0424095
0.0251592 0.00327231 0.0181786
0.0444477 0.027397 0.0155024
0.0159161 0.0132168 0.0248333
-0.0385841 -0.00675933 0.0092237
0.0184917 -0.0147396 0.0425798
0.0061 0.0194655 -0.0169285
-0.0051831 -0.015934 0.026972
0.0255765 -0.0276149 0.0164498
0.0325914 0.0345851 -0.0193751
0.0234157 -0.00495046 0.0110428
-0.0284819 0.028323 0.022098
-0.0225335 0.0222954 0.027571
0.0252074 0.0104143 0.0137395
0.0486332 0.0176177 0.0228352
-0.0396033 -0.00326315 0.016624
0.00928669 0.0015985 0.0319258
-0.0374703 0.015769 0.02028
-0.0420189 -0.00772847 0.00463129
0.00544001 0.00688721 -0.0168221
0.0152245 0.0331699 -0.0122971
0.01935 0.0374744 0.0288783
-0.00225685 -0.0228998 0.0173167
0.01295 0.00680163 -0.0133698
0.0120146 0.0175811 0.0269143
-0.0276565 0.0331667 -0.0314642
0.0136192 0.00128966 0.0272937
0.0495446 0.0095488 0.00738033
-0.0314874 -0.0193608 -0.0119378
0.0296625 0.0139291 0.0398019
0.0317029 0.0314402 -0.0231308
-0.0025462 0.0146898 0.038366
-0.0242323 -0.00136685 -0.0377786
-0.0112073 -0.0221421 -0.0293252
-0.00412485 0.0265901 0.0442153
0.0381887 -0.00934414 -0.00509685
0.00948541 -0.0155834 0.0199875
0.0365688 0.00419761 0.0172469
-0.0286992 0.0132285 -0.0278634
0.0267016 -0.0208774 -0.0012515
0.027949 0.0218155 -0.0307849
-0.0336446 0.0229948 0.0219571
0.0188701 0.0086679 -0.00712401
