ply
format ascii 1.0
comment Created by Open3D
element vertex 1501
property double x
property double y
property double z
end_header
0.0330349 -0.023627 0.018218
0.0498816 0.000501644 0.0173403
0.0331343 -0.0235534 0.0190902
0.0430048 -0.011272 0.0253665
0.0325851 -0.0238819 0.020039
0.0311461 -0.0028146 -0.0138534
0.0258688 -0.0225236 0.000206132
0.033589 0.00218906 -0.0137022
0.0488335 0.00951573 0.0280679
0.0189307 -0.0236894 -0.00164448
0.0214305 -0.023537 0.000118671
0.0455098 0.016539 -0.00117465
0.022137 -0.0234207 0.000142442
0.0244492 -0.0230397 0.000213824
0.0484348 -0.00304454 0.00829161
0.0261098 -0.0227042 0.00105675
0.0275741 -0.0227233 0.00235967
0.0294536 -0.0224327 0.00261513
0.0337521 -0.0222584 0.00826032
0.0326619 0.0294495 -0.00542799
0.0343382 -0.0218292 0.00841843
0.0160185 0.00590285 -0.0189051
0.0333389 -0.0229175 0.0155047
0.0335332 -0.0228418 0.0163145
0.0335253 -0.0230525 0.0172275
0.0335056 -0.0232561 0.0181335
0.0335677 -0.0231918 0.019041
0.0270184 0.00952588 -0.0167119
0.0407595 -0.0133203 0.00471174
0.0457986 -0.00929255 0.0119256
0.0429864 -0.00298832 -0.00410102
0.0187529 -0.0234709 -0.00221898
0.0202298 -0.0233465 -0.000960962
0.0313061 -0.00823692 -0.0111762
0.0434121 -0.0122335 0.00919194
0.0209299 -0.0232508 -0.000748347
0.0216549 -0.0231487 -0.000559293
0.022704 -0.0228133 -0.000775388
0.0241673 -0.0227437 -0.000441123
0.0250579 -0.0226002 -0.000398331
0.0267918 -0.0224854 0.00140465
0.0270764 -0.0221807 0.00101772
0.0305477 0.0300772 -0.00588984
0.027458 -0.0224088 0.00175869
0.042058 0.00693951 -0.00759341
0.0429218 0.0290054 0.0109428
0.0279844 -0.0223322 0.00187045
0.0435855 -0.00593389 -0.00100771
0.0341954 -0.0227505 0.0199615
0.0290048 -0.0220335 0.00193777
0.0483312 -0.00216311 0.0259787
0.030673 -0.0217798 0.00216047
0.0492633 0.00857836 0.00474642
0.0343675 -0.0219194 0.0100263
0.0336624 -0.0224088 0.0125049
0.0340274 -0.0227514 0.0181871
0.0431955 -0.00493475 -0.00250079
0.0341334 -0.0227503 0.0188541
0.0336324 -0.0231264 0.019953
0.0191174 -0.0231159 -0.00228765
0.0481013 0.00402598 0.00171388
0.0207572 -0.0227055 -0.00178075
0.0215812 -0.0227284 -0.0013703
0.0336823 -0.0224103 0.0154729
0.0227584 0.0304633 -0.00798134
0.0500381 0.0120488 0.0218019
0.0225332 -0.0226623 -0.00117128
0.0244363 -0.0223693 -0.000975108
0.0253194 -0.0221283 -0.000825563
0.0262755 -0.0220759 7.70706e-05
0.0279819 -0.0218405 0.00101611
0.030699 -0.0183769 -0.00149442
0.0286356 -0.0217512 0.00119841
0.0315858 -0.0212782 0.0019831
0.0331977 -0.0210969 0.00380922
0.0335488 -0.0212491 0.00456531
0.0403034 -0.0138781 0.00475043
0.0342151 -0.0211212 0.00557127
0.0447483 0.0147506 -0.0031937
0.0347308 -0.0216416 0.00915539
0.0363578 -0.0177149 0.00337346
0.0226678 -0.021833 -0.00228823
0.0252522 0.00405351 -0.0174619
0.0341804 -0.0219344 0.0127522
0.0338894 -0.0224828 0.0165981
0.0476923 -0.00574577 0.0217722
0.0188447 0.0104074 -0.0191601
0.0197502 -0.0057542 -0.0159918
0.0203809 -0.0226413 -0.0020992
0.0224452 -0.022352 -0.00162385
0.0430018 -0.0120212 0.0236526
0.024393 -0.0218735 -0.00159014
0.0251598 -0.0217338 -0.00132183
0.0276075 -0.0217267 0.000617594
0.0291032 -0.0215214 0.00100825
0.0260785 0.000482297 -0.0166592
0.0489989 -0.00326354 0.0192019
0.0449194 0.0256343 0.00742778
0.0298304 -0.0213196 0.00106768
0.0306525 -0.0211509 0.00115844
0.0322391 -0.0209621 0.00215972
0.0340619 0.0345522 0.00389687
0.0356886 0.00585519 -0.0129855
0.0351488 0.0248238 -0.00790388
0.0348697 -0.0208978 0.0065961
0.0436293 -0.00171598 -0.00383179
0.049922 0.00682542 0.00721023
0.035091 -0.021018 0.00741276
0.0353294 -0.0211954 0.00925899
0.0350227 -0.0213938 0.010861
0.0342775 -0.0217841 0.0137703
0.0342355 -0.0219051 0.0154976
0.0343837 -0.0219731 0.0164877
0.0260899 0.0031893 -0.017211
0.0345135 -0.0221684 0.0173124
0.00801235 0.00134215 -0.0179222
0.0471956 0.000197739 0.0303453
0.0352458 -0.0220759 0.0198475
0.0458435 0.0257953 0.0190699
0.034671 -0.0224173 0.0202519
0.0408068 0.0231992 -0.00278735
0.0174523 0.0123031 -0.0187718
0.0264502 -0.0214164 -0.000786933
0.0402068 -0.0100497 -0.0022597
0.0270728 -0.0211451 -0.000680041
0.0402219 0.0235993 -0.0031337
0.0467577 0.0184777 0.00287012
0.0387102 0.0176034 -0.008802
0.0272772 -0.0214341 -0.000154598
0.0126628 -0.0176682 -0.00906745
0.0369611 -0.0130101 -0.0025315
0.0296853 -0.0209262 0.000256407
0.0477293 -0.00576866 0.00921504
0.0487285 0.00313007 0.0037735
0.0443067 -0.00916015 0.0271416
0.0347269 -0.00104358 -0.0120512
0.0315158 -0.0208935 0.00132031
0.0297122 0.0076892 -0.0160536
0.0330035 -0.0208259 0.00316377
0.0356286 -0.0208997 0.00851047
0.0357395 -0.0208596 0.00923593
0.0353108 -0.0211233 0.01186
0.0377278 -0.0192814 0.0110607
0.0487356 -0.00394035 0.0172852
0.0349818 -0.0213002 0.0127235
0.0479346 -0.00575801 0.0173141
0.0355256 -0.0220239 0.0205321
0.0188505 -0.00496938 -0.0162833
0.0246216 -0.021415 -0.00195413
0.0243425 0.012217 -0.0175284
0.0260547 -0.0210318 -0.00152911
0.0306091 -0.0206811 0.000349887
0.0288505 0.00587311 -0.0165932
0.0314598 -0.0201639 0.000356607
0.0465777 -0.00391836 0.00300223
0.0322951 -0.020125 0.00116173
0.0340329 -0.0201026 0.00392158
0.0226856 0.0105172 -0.0181474
0.0343837 -0.0202692 0.00462097
0.0353576 -0.0204342 0.0064411
0.0296394 0.0264632 -0.0105964
0.036043 -0.0202044 0.00742823
0.0482791 0.0203487 0.0217418
0.0352483 -0.0211004 0.0145018
0.0352473 -0.0212708 0.0163834
0.0354447 -0.0215333 0.0180921
0.0294139 -0.0171641 -0.00338693
0.0356802 -0.0215969 0.0191999
0.0460471 0.0221855 0.00380029
0.0358878 -0.0216151 0.0197595
0.0126051 0.00929997 -0.0193007
0.0280795 -0.00867577 -0.0126792
0.0362446 0.0295649 -0.00358252
0.0200481 -0.0217484 -0.00307572
0.0207624 -0.0216407 -0.0030385
0.0217818 -0.021497 -0.00287299
0.0368368 0.0211079 -0.00950587
0.048278 0.0193962 0.0219627
0.0227264 -0.0213534 -0.00283667
0.0491955 0.016611 0.0218092
0.0251581 -0.0208612 -0.00226497
0.0297067 -0.0201976 -0.00063213
0.0300209 -0.0204554 -0.000202267
0.0484422 -0.0031115 0.0244757
0.0363471 -0.0204016 0.0101549
0.0362421 -0.0204913 0.0109732
0.035683 -0.0208235 0.0137047
0.036047 -0.0209362 0.0174351
0.0494722 -0.0013091 0.0119384
0.0361978 -0.0211538 0.0190464
0.0198445 -0.00711894 -0.0154283
0.0363457 -0.0212296 0.0201527
0.032498 -0.00132824 -0.0134718
0.0198063 -0.0210887 -0.00342792
0.0215703 -0.021121 -0.00323922
0.0365731 -0.019939 0.00834636
0.0309206 -0.000440423 -0.014594
0.0368337 -0.0199961 0.0109477
0.0364209 -0.0203733 0.0129828
0.0370044 -0.0174422 0.00372984
0.0452417 0.0265942 0.0173039
0.0363238 -0.0204619 0.0138147
0.0402982 0.035633 0.0111318
0.0362291 -0.0205505 0.0146506
0.0506422 0.00860887 0.0182148
0.034428 -0.0152398 -0.00196894
0.0362463 -0.0206126 0.0153804
0.0367355 -0.020819 0.0201277
0.0455171 -0.00735787 0.0280378
0.019149 -0.0211759 -0.0035663
0.0236464 -0.0203861 -0.00336316
0.0245356 -0.0205136 -0.00290302
0.0161116 -0.0163437 -0.00969397
0.0253324 -0.0202989 -0.00272298
0.0439412 0.0121931 -0.0050916
0.0279348 -0.0199876 -0.00148214
0.0439268 -0.0120918 0.0146835
0.0285833 -0.0199064 -0.0012924
0.0323441 -0.0193176 0.000261674
0.03271 -0.019547 0.000955343
0.033602 -0.0058985 -0.0109996
0.0445369 -0.0106987 0.0173401
0.0442894 0.0273819 0.0145971
0.0332239 -0.019201 0.00114547
0.0480308 0.0103513 0.00194179
0.0334677 -0.0194314 0.00191065
0.0337063 -0.0196042 0.00258105
0.0344244 -0.0195252 0.00367471
0.0349821 -0.019145 0.00387974
0.0352039 -0.0194611 0.00454158
0.0360529 -0.0194177 0.00551215
0.0162347 0.00140918 -0.0187207
0.0363962 -0.0195167 0.00624013
0.0492108 0.0218291 0.0240356
0.0368201 -0.0191849 0.00654931
0.0369056 -0.019283 0.00745568
0.0423917 0.0301115 0.0208531
0.0372186 -0.0195323 0.00986442
0.036848 -0.0202599 0.0155225
0.0370565 -0.0202998 0.0173838
0.0315642 -0.0102238 -0.00967913
0.049996 0.0135707 0.0133957
0.0188064 -0.0208056 -0.00402644
0.0225894 -0.0203858 -0.00347406
0.0253117 -0.019898 -0.00310885
0.0268083 -0.0199613 -0.00216659
0.0443492 0.0277619 0.0198151
0.0297228 -0.019225 -0.0013937
0.0380244 -0.00315524 -0.00903985
0.050599 0.00328718 0.01546
0.0306812 -0.00676535 -0.0124893
0.0444229 0.0277463 0.020876
0.0299404 -0.0195817 -0.00114178
0.0307351 -0.0192834 -0.000915172
0.0339291 -0.01911 0.00212696
0.0378943 -0.0192526 0.0119016
0.0378888 -0.0193221 0.012711
0.0398753 -0.0169876 0.0101326
0.0377803 -0.0173708 0.00476466
0.0420738 0.00945178 -0.00760595
0.0217342 -0.012037 -0.0125553
0.0251073 -0.0109027 -0.0121129
0.0376831 -0.0195596 0.0135689
0.0259734 -0.00309389 -0.0156699
0.0490564 0.0179733 0.0177682
0.0467957 0.0103279 -0.00064746
0.0374943 -0.0197543 0.0139421
0.0374412 -0.0198146 0.0145501
0.0392205 -0.0180123 0.0120318
0.0271701 -0.0131859 -0.01014
0.0424832 0.00684317 -0.00706953
0.0374524 -0.0198923 0.0154694
0.0478087 -0.00577517 0.0182571
0.0330617 0.0219413 -0.0111355
0.0490963 0.00779484 0.00423734
0.0426177 -0.0142416 0.0126827
0.0231815 -0.0118726 -0.0120485
0.0198902 -0.0202492 -0.00422914
0.0199725 -0.0205653 -0.00370674
0.0189332 -0.00756211 -0.0152924
0.0329665 -0.0190082 0.000499714
0.0216566 -0.00121769 -0.0175563
0.0387342 0.0292501 0.000206197
0.0375091 -0.0190819 0.00923432
0.0473117 -0.00636437 0.00774624
0.0378369 -0.0194676 0.0143354
0.0379507 -0.0195357 0.0153326
0.0380041 -0.0195867 0.0160251
0.0375372 -0.019842 0.0182164
0.0414777 0.0239425 -0.00168355
0.042361 0.0295427 0.00923811
0.0476033 0.0193923 0.00737865
0.0296455 0.0328888 -0.00417244
0.0175593 -0.0204904 -0.00538641
0.0269881 -0.0128782 -0.0103352
0.038226 0.0225361 -0.00739059
0.044035 -0.0111332 0.0199909
0.0181086 -0.0201766 -0.00533509
0.0181597 -0.0204569 -0.00474646
0.0208161 -0.0199452 -0.00422549
0.0113312 0.00106589 -0.0179738
0.0216226 -0.0200205 -0.00394862
0.0224164 -0.019903 -0.00397359
0.024265 -0.0192975 -0.00405179
0.0279081 -0.0191109 -0.00229513
0.0335316 -0.0186948 0.000878324
0.0341375 -0.0182953 0.00112783
0.0501882 0.00240955 0.0199035
0.0343436 -0.0185741 0.00188494
0.0345931 -0.018678 0.00251703
0.0509675 0.00672433 0.0154449
0.0351316 -0.0183957 0.00284959
0.0264219 -0.0150517 -0.00903591
0.0354028 -0.0185791 0.00351952
0.0360088 -0.0183232 0.00384414
0.0361833 -0.0186025 0.00437135
0.0372072 -0.0184627 0.00551149
0.0185938 0.0227166 -0.0159945
0.0373603 -0.0186165 0.00657669
0.0376875 -0.0183442 0.00740172
0.0377999 -0.0184607 0.00829134
0.0381779 -0.0188458 0.0107261
0.0285411 -0.0109181 -0.0111654
0.0382949 -0.0188794 0.0113287
0.0383533 -0.019064 0.0136298
0.0387262 0.0342015 0.00347577
0.0383486 -0.0191423 0.0145551
0.0365528 -0.0117868 -0.00488869
0.0386067 -0.0190863 0.0154021
0.0380078 -0.0194037 0.0181648
0.0378584 -0.019322 0.0191226
0.00393585 -0.013265 -0.0127829
0.0373752 -0.0197185 0.0197358
0.025489 -0.0123836 -0.0109517
0.0165958 -0.020051 -0.00715517
0.017373 -0.0201091 -0.00614905
0.0216433 -0.0195284 -0.0044327
0.0403079 -0.017306 0.0173487
0.0226191 -0.0193417 -0.00434262
0.0234299 -0.0191734 -0.0043183
0.0498853 0.0140016 0.0172484
0.0251481 -0.0190256 -0.00399223
0.0443575 -0.0103844 0.00648941
0.0267276 -0.0190778 -0.0031065
0.0285705 -0.0188957 -0.00211445
0.0170265 -0.0094126 -0.0149092
0.021694 -0.00756343 -0.0151583
0.0291631 -0.0188296 -0.00188808
0.0494811 0.00405691 0.00562884
0.0297629 -0.0185153 -0.00178245
0.0366894 -0.0180517 0.00409796
0.0288167 0.0131255 -0.015848
0.0162277 -0.00928009 -0.0149595
0.0375985 -0.0180517 0.00567238
0.0376774 -0.01817 0.0064592
0.0441484 -0.0113716 0.00924221
0.0388209 -0.0183296 0.0110683
0.038839 -0.0183702 0.0118712
0.0244276 0.0113332 -0.0176012
0.0389589 -0.0186965 0.0145454
0.0390423 -0.0187037 0.015323
0.0376626 -0.019296 0.0209836
0.0425226 0.0267053 0.00279418
0.0261846 -0.0122811 -0.0108136
0.017954 -0.0198121 -0.00596941
0.0481552 -0.00519621 0.0109406
0.0191745 -0.019687 -0.00538883
0.0501109 0.0134008 0.0267946
0.0199364 -0.0195946 -0.00520252
0.019013 0.0205717 -0.0163686
0.0208641 -0.0192903 -0.0052624
0.0270992 -0.0185135 -0.00340284
0.0281215 -0.0184613 -0.00272542
0.0445386 0.00589039 -0.00460695
0.0288323 -0.0182975 -0.00241651
0.0358149 -0.0180342 0.00316657
0.0215104 -0.00029743 -0.0177428
0.0372966 -0.0177584 0.00446635
0.0374718 -0.0179581 0.00510312
0.0190448 -0.010294 -0.0144802
0.0394593 -0.0182535 0.0154455
0.0198355 -0.0130712 -0.0124106
0.0390178 -0.0186513 0.0162808
0.0388651 -0.0186724 0.017383
0.0479784 0.00242087 0.0298343
0.0385238 -0.0188715 0.0181252
0.0383031 -0.018953 0.018743
0.0191344 -0.0115168 -0.0135915
0.017878 -0.0193405 -0.00699448
0.0182936 -0.0194349 -0.00651454
0.00898556 -0.00230141 -0.0180366
0.0188612 -0.0193814 -0.0061981
0.0199187 -0.0191328 -0.00605977
0.0217322 -0.0190759 -0.00502548
0.0360483 -0.00483105 -0.00966847
0.0440518 0.0274795 0.0137399
0.0224019 -0.0190009 -0.0047987
0.0444182 -0.00959798 0.0238013
0.0243489 -0.0186435 -0.00450649
0.0463745 -0.0069705 0.0257229
0.0169875 -0.00130752 -0.0176268
0.0253077 -0.0184675 -0.00436588
0.0261304 -0.0183513 -0.00417414
0.0322275 -0.00742306 -0.0111803
0.0294867 -0.0182293 -0.00212749
0.0325362 -0.0175839 -0.000890049
0.0335552 -0.0177404 -8.06627e-05
0.0344611 -0.0177711 0.000788354
0.0207188 -0.0112106 -0.0133806
0.0349929 -0.0174217 0.0011262
0.0486193 0.0166365 0.00829439
0.036085 -0.0175491 0.00285112
0.0332777 0.0312265 -0.00269465
0.038 -0.0174729 0.00550374
0.0387489 -0.0175129 0.00823512
0.0391226 -0.0178757 0.0101623
0.0392708 -0.0180739 0.0128858
0.0394503 -0.0181222 0.0137966
0.0501487 0.000548915 0.015535
0.0395246 -0.0181797 0.0163085
0.0389777 -0.0184072 0.0182113
0.0387368 -0.0185069 0.0190442
0.0447407 -0.00738873 0.00213322
0.0388192 0.0345037 0.00473684
0.0198149 -0.00493572 -0.0161795
0.0457887 0.0167313 -0.000605937
0.0490781 0.0161548 0.0106057
0.0195973 -0.0189602 -0.00665645
0.0279041 0.011306 -0.0160488
0.0205275 -0.0188651 -0.00624531
0.0209211 -0.0188176 -0.00616363
0.0216225 -0.0185863 -0.00611544
0.0238187 -0.0185325 -0.00474483
0.0297207 -0.0176644 -0.00254718
0.0358938 -0.0172366 0.00214123
0.0155461 -0.0111903 -0.0140733
0.0366658 -0.0171982 0.00310708
0.0430941 0.0246916 0.00118121
0.0385784 -0.0173363 0.00735304
0.0393609 -0.0173564 0.0092951
0.0395223 -0.017394 0.0100546
0.0396405 -0.0173838 0.0119451
0.0395764 -0.0175334 0.0128483
0.0376167 0.0334481 0.00755407
0.0398781 -0.0177307 0.0154708
0.0388928 -0.0182444 0.0200309
0.00778099 0.0223505 -0.0178429
0.0135856 -0.019273 -0.00756915
0.0154329 -0.0191776 -0.0074694
0.0181327 -0.0185243 -0.00752655
0.039031 -0.003308 -0.00829638
0.0189612 -0.0186469 -0.00725826
0.0207983 -0.0183441 -0.00707627
0.0244284 -0.0181556 -0.00498888
0.0418476 -0.0143359 0.00888214
0.0252002 -0.0180619 -0.00485203
0.0257773 -0.0179917 -0.00475245
0.048081 -0.004164 0.00811212
0.0279694 -0.017402 -0.00423051
0.0476254 0.0220968 0.0136896
0.0279001 -0.0177941 -0.00360897
0.0375416 -0.0170867 0.00402393
0.0383574 -0.0171179 0.00583699
0.0271069 0.0281753 -0.0088494
0.0392677 -0.0172115 0.00861362
0.0399226 -0.0177343 0.016448
0.0397852 -0.0112108 -0.00166996
0.011374 0.016401 -0.0210997
0.0223539 -0.0180224 -0.00674861
0.0261799 0.00236593 -0.017035
0.0230761 -0.0179661 -0.00623099
0.0243478 -0.0178585 -0.0054284
0.0498714 0.0140341 0.0191512
0.025443 -0.0176248 -0.0053982
0.0341599 0.00772786 -0.0140111
0.0263734 0.0168298 -0.01632
0.0270214 -0.0173193 -0.00519756
0.0335273 -0.0168258 -0.000854033
0.0482867 0.0195771 0.0236684
0.0341788 -0.0165685 -0.00055056
0.0269834 0.00505193 -0.0172134
0.040841 0.028639 0.00273871
0.0344311 -0.0168678 -1.3478e-05
0.0333167 -0.00857292 -0.00980486
0.0350027 -0.0165739 0.000346475
0.042907 -0.012677 0.00851702
0.0357917 -0.0165077 0.00129294
0.036216 -0.0166091 0.00188795
0.0377622 -0.0165232 0.00377265
0.0381391 -0.0166835 0.00460167
0.0389275 -0.0166679 0.00642444
0.043587 -0.00880455 0.00169483
0.0390973 -0.01688 0.00738514
0.0396894 -0.0166608 0.00824398
0.0400194 -0.0168368 0.0109656
0.0401379 -0.0173206 0.0149208
0.0173613 0.00658834 -0.0190294
0.040293 -0.017285 0.0155896
0.0271959 0.00125788 -0.0163754
0.0403893 -0.0172438 0.0164363
0.03985 -0.0176126 0.0182221
0.042084 -0.0118413 0.0047717
0.026243 -0.00964499 -0.0127458
0.0335032 0.0341646 0.00342919
0.039819 -0.0175426 0.0190185
0.0379347 -0.0132883 -0.000695103
0.0342359 0.00681414 -0.0140216
0.0396841 -0.0176304 0.0199349
0.0337016 -0.0114159 -0.00742707
0.0462148 0.00146124 -0.000886935
0.0136468 -0.0184826 -0.00767728
0.0147709 -0.0186896 -0.00741598
0.0173247 -0.018199 -0.00759284
0.0199419 -0.0179784 -0.00785954
0.0424698 0.0113215 -0.0070901
0.0205927 -0.0177948 -0.00793247
0.022638 -0.0176706 -0.00725643
0.0376118 0.0184193 -0.00949898
0.0447297 0.0121564 -0.00410577
0.0234166 -0.0174558 -0.00694116
0.024298 -0.0174305 -0.00611469
0.0371328 -0.0122179 -0.00361748
0.0276942 -0.0171839 -0.00493233
0.0286898 -0.0171234 -0.00400779
0.0439211 0.0282884 0.0201236
0.0299599 -0.0168664 -0.00345805
0.0306535 -0.0165865 -0.00335666
0.0408138 -0.00860936 -0.00261957
0.0307782 -0.0169442 -0.00275724
0.0304577 -0.0118697 -0.00934576
0.0497516 -0.00129202 0.0145723
0.0315547 -0.0166714 -0.00254565
0.0319722 -0.0168434 -0.00202252
0.0325571 -0.0166775 -0.00172365
0.0408564 -0.0157971 0.0119254
0.0472044 -0.0033245 0.00442716
0.0384687 -0.016299 0.00474965
0.0364076 -0.0160259 0.00165973
0.0499944 0.01294 0.0169928
0.0402391 -0.0165183 0.0100562
0.0426507 -0.0141394 0.0165399
0.0400201 -0.016914 0.0128502
0.0404884 0.0174977 -0.00771642
0.0403422 -0.0166398 0.0136998
0.040766 -0.0166167 0.0154588
0.0401976 -0.0172974 0.0182243
0.0502359 0.00223601 0.0164555
0.0510803 0.00495337 0.0163903
0.0405862 0.0319945 0.0118773
0.0243076 -0.0121048 -0.011398
0.0196892 -0.0177061 -0.0081972
0.0230322 -0.0173262 -0.00750699
0.0240261 -0.0172592 -0.0066857
0.0260948 -0.0168439 -0.00626925
0.027484 -0.0168941 -0.00559639
0.0296826 0.0085344 -0.0159739
0.0262243 -0.0102728 -0.0123782
0.0288637 -0.016801 -0.00445662
0.0296838 -0.0165268 -0.00418614
0.0347267 -0.0163578 -0.000251639
0.0401201 -0.0163131 0.00849006
0.0402304 -0.0163429 0.00908098
0.0268755 0.0059954 -0.0173837
0.0407964 -0.0168047 0.0162615
0.0478717 -0.00491681 0.0234829
0.040831 -0.0166053 0.0172214
0.0407066 -0.0165691 0.0191345
0.0403191 -0.0170878 0.0192348
0.040355 -0.0171375 0.0199635
0.0124896 -0.0180819 -0.00871743
0.0423798 -0.0138366 0.0226373
0.0505024 0.0031867 0.020006
0.0168099 -0.0176789 -0.0077845
0.049231 -0.00198655 0.0118906
0.0203462 -0.0173016 -0.00875927
0.0222625 -0.017067 -0.00864015
0.0429124 0.0341617 0.0191265
0.0505997 0.0103333 0.0154412
0.0227393 -0.0169174 -0.0086143
0.0309103 0.00403323 -0.0154618
0.023474 -0.0169071 -0.00798176
0.0325635 -0.00880627 -0.0099983
0.0225755 -0.00416896 -0.0162982
0.033558 -0.0160064 -0.00177599
0.0342253 -0.0157614 -0.0015745
0.0399032 -0.00137583 -0.0082106
0.0343916 -0.0160895 -0.000965403
0.0353116 -0.0159646 9.47149e-05
0.0369741 -0.0157231 0.00200767
0.0372821 -0.0158537 0.00257449
0.0381121 -0.0157661 0.00368703
0.0387181 -0.00846968 -0.00515001
0.0393728 -0.0155916 0.00567064
0.0503671 0.0103706 0.0190098
0.0399541 -0.0159453 0.00740249
0.0390021 0.024847 -0.00364647
0.0404955 -0.0157371 0.00830024
0.0407322 -0.0158811 0.00999035
0.041036 -0.0163846 0.0163765
0.0478961 0.00406931 0.0298084
0.0318095 0.0239846 -0.0110044
0.021585 0.0112859 -0.0183138
0.0407468 -0.0165478 0.0199755
0.0135961 -0.0179037 -0.008251
0.0199098 0.0177034 -0.0174752
0.0144223 -0.0178268 -0.00788652
0.0451424 0.0211748 0.00201115
0.0215098 -0.0168506 -0.00914387
0.0243364 -0.016534 -0.00788816
0.0461643 0.0248409 0.0191922
0.0244179 0.0095201 -0.0175958
0.0263239 -0.0164106 -0.00690559
0.0286632 -0.0161773 -0.00608716
0.0298403 -0.0158714 -0.00517223
0.0181366 -0.00937126 -0.0149465
0.029815 0.0347496 -0.00161605
0.0306617 -0.0159262 -0.00429247
0.032544 -0.015866 -0.00278223
0.0333089 -0.0156282 -0.00242736
0.0366235 -0.0155495 0.00136716
0.0498516 0.00423082 0.0236655
0.0403185 -0.0155257 0.00743366
0.0429427 0.0288637 0.0137788
0.0408537 -0.0157832 0.0110007
0.0408733 -0.0160415 0.0143947
0.029715 0.00318796 -0.0159099
0.0410565 -0.0161942 0.0156119
0.041527 0.0312662 0.0200603
0.0144783 -0.0173825 -0.00858954
0.0468197 -0.00400113 0.00377975
0.0161789 -0.0173063 -0.00807746
0.0176411 -0.0171006 -0.00844476
0.0225851 -0.0164194 -0.00948146
0.0241637 -0.0162917 -0.00854726
0.0251808 -0.0162113 -0.00791883
0.0352453 0.00417086 -0.0134159
0.0257295 -0.016164 -0.00763522
0.0261052 -0.0158823 -0.00794445
0.026399 -0.0161072 -0.00727567
0.0290661 -0.0158554 -0.00620598
0.0250248 -0.00634258 -0.0146559
0.0314701 -0.0155221 -0.00429218
0.0356137 -0.0154686 -0.000315249
0.0170956 -0.0049131 -0.0170203
0.0410842 -0.0154584 0.0102265
0.0414588 -0.0155736 0.0154588
0.0412774 -0.0157612 0.0173613
0.02427 0.00771266 -0.017663
0.041329 -0.0156789 0.018184
0.0409944 -0.0162775 0.0204043
0.0411251 -0.0163059 0.0210308
0.0454097 0.00321104 -0.00278147
0.0430881 0.0194048 -0.00331923
0.0309317 0.00502586 -0.0154747
0.0196719 -0.0165098 -0.00932734
0.0252297 -0.0156392 -0.00882589
0.0350917 0.0112675 -0.0131908
0.0270708 -0.0155842 -0.00787864
0.0293513 -0.0155329 -0.00656207
0.0306198 -0.0154841 -0.00506484
0.0491318 -0.00102148 0.00849878
0.032076 -0.0153794 -0.00404276
0.0340113 -0.0152677 -0.00229069
0.0351313 -0.0149684 -0.00164175
0.0354111 -0.015191 -0.000966151
0.0429491 -0.0118614 0.00663007
0.0385572 -0.0147229 0.00298308
0.0390844 -0.0151282 0.00449615
0.0253402 0.0202859 -0.0158844
0.0395437 -0.0147852 0.0047517
0.0398608 -0.0149085 0.00552976
0.0399667 -0.0151421 0.00622438
0.0403851 -0.0148338 0.00651268
0.049701 0.0157709 0.0173513
0.0407436 -0.0149242 0.00737006
0.04124 -0.0148179 0.00835471
0.0415692 -0.0148722 0.0100333
0.0371762 -0.00774187 -0.00720899
0.0360408 0.0166836 -0.0114256
0.0412394 -0.0153143 0.0108953
0.0461694 0.00402608 -0.00161977
0.0412875 -0.0154422 0.0128121
0.038355 0.00185233 -0.0101672
0.0448135 0.0112245 -0.00415215
0.041384 -0.0156356 0.0191042
0.0414417 -0.0156228 0.0200649
0.0414014 -0.0157643 0.0209378
0.0346944 0.000910225 -0.0129075
0.0462598 0.018605 0.00184438
0.0143404 -0.0167076 -0.00951155
0.0361915 0.0285548 -0.00445446
0.0409144 0.0276671 0.0017992
0.0161526 -0.0166566 -0.00922288
0.0260883 -0.0154478 -0.00866371
0.0207541 0.016655 -0.0178529
0.0252267 -0.00301733 -0.0159424
0.0297336 -0.0148148 -0.00702713
0.0299633 -0.0151474 -0.00635214
0.030612 -0.0148663 -0.00606736
0.0308816 -0.015103 -0.00541146
0.0315338 -0.0148214 -0.00513746
0.027059 -0.0149737 -0.00881823
0.0317921 -0.015113 -0.00463432
0.0324919 -0.0148409 -0.00438241
0.0209645 0.00496551 -0.0185884
0.0333833 -0.0149308 -0.00346417
0.038936 0.00596065 -0.0108518
0.0208966 0.0239483 -0.015231
0.0343202 -0.0148608 -0.00253066
0.0367244 -0.0146916 0.000241859
0.0393069 -0.0146441 0.00401491
0.0307589 0.0304302 -0.00532405
0.0492133 -0.00117461 0.00921485
0.0482786 -0.00477516 0.0209011
0.0489971 -0.00339879 0.0145653
0.0453731 -0.00696999 0.00366853
0.0482136 0.0199621 0.0135085
0.0171756 -0.0162223 -0.00965112
0.0180949 -0.0159608 -0.00985862
0.0401613 0.0104685 -0.00943853
0.0187531 -0.0158805 -0.00991863
0.0196516 -0.0159122 -0.00996248
0.0438984 -0.00923269 0.00298435
0.0458273 0.0283026 0.0235419
0.0248931 -0.0153324 -0.00948376
0.028772 -0.0147244 -0.0079055
0.029124 -0.0149818 -0.00735577
0.0332602 -0.0145454 -0.00412496
0.0341054 -0.0145116 -0.00332772
0.0422565 -0.0128802 0.00741029
0.0292428 0.0359639 -0.000949994
0.0349335 -0.014478 -0.00249347
0.0357811 -0.0146042 -0.00142534
0.0383067 -0.0145637 0.00234916
0.0411469 -0.0145907 0.00766854
0.0420864 -0.0145728 0.0118958
0.049261 0.00316931 0.0253475
0.0388762 0.00677986 -0.0108644
0.0421847 -0.0146541 0.012706
0.0490963 0.00591853 0.00423734
0.0422256 -0.0147375 0.0136369
0.0423296 -0.0146608 0.0146171
0.0445657 0.0223177 0.00159003
0.0418236 -0.0151166 0.0166406
0.0459836 -0.00666207 0.0281125
0.0417698 -0.0151773 0.0174475
0.0378216 0.0225798 -0.00769112
0.0178301 -0.0156195 -0.0105174
0.0204264 -0.0155151 -0.0104204
0.0407773 0.00595273 -0.00902156
0.0234225 -0.014921 -0.0107167
0.0163638 -0.0141388 -0.0127571
0.0242311 -0.0147534 -0.0103861
0.0246031 -0.0149755 -0.00998616
0.0395075 -0.00390513 -0.0076709
0.0322668 0.00507001 -0.0147455
0.0252093 -0.0147766 -0.00976121
0.0458446 0.0230072 0.00387188
0.0278237 -0.0146251 -0.00877928
0.0225919 0.0263173 -0.0121697
0.0294971 -0.0144652 -0.00760961
0.0375526 0.0031749 -0.011207
0.0312255 -0.014581 -0.00581581
0.0322794 -0.0145147 -0.00499037
0.036077 -0.0142043 -0.00166287
0.037152 -0.0142261 4.92521e-05
0.0102465 0.0186912 -0.0207526
0.0377388 -0.0138905 0.000290527
0.0391852 0.0313036 0.00627076
0.0452137 0.0257269 0.0109981
0.0440376 -0.00390247 -0.00244463
0.0399131 -0.0142097 0.00458148
0.0408258 -0.0141182 0.00637911
0.0414483 -0.0139015 0.00737624
0.0416949 -0.0141157 0.00816762
0.0419441 -0.014411 0.0101827
0.0474995 -0.00488656 0.025405
0.0369621 0.0340787 0.00474026
0.0419858 -0.0144617 0.0110217
0.0436236 0.00918361 -0.00564178
0.0422064 -0.0146943 0.0173036
0.0422569 -0.0147314 0.0182244
0.0223234 0.00859227 -0.0184014
0.0500424 0.000604572 0.0163616
0.0418777 -0.0151574 0.0213344
0.0462032 -0.00853698 0.00918622
0.017257 -0.00841198 -0.0153433
0.0272079 -0.0105673 -0.0118079
0.0385142 -0.01289 -0.000571418
0.0216264 -0.0147326 -0.0108921
0.048673 -0.00137075 0.0073574
0.050082 0.00675032 0.00766464
0.0269272 -0.0145756 -0.00936076
0.0284699 -0.0144585 -0.00848862
0.0333505 -0.0137992 -0.00512094
0.0335658 -0.0140791 -0.00451236
0.0344525 -0.0141028 -0.00359315
0.035125 -0.0137579 -0.0034417
0.0359633 -0.0137799 -0.00253477
0.039495 -0.0138029 0.00295733
0.0420295 -0.0137428 0.00845439
0.040437 -0.0128008 0.00293897
0.042743 0.0207512 -0.00276699
0.0233339 0.0140348 -0.0177512
0.0479633 0.00860414 0.00200813
0.0483977 0.00595375 0.0282272
0.0423408 -0.0138241 0.0100964
0.0424453 -0.0139273 0.0109925
0.0425119 -0.014093 0.0117927
0.0426945 -0.014298 0.0136823
0.0324712 0.0302452 -0.00424387
0.036867 0.0247387 -0.00603781
0.00447092 -0.00920086 -0.0140561
0.0435329 -0.00227056 -0.00369878
0.0506841 0.00773678 0.0181624
0.018853 -0.0151042 -0.0109456
0.0197707 -0.0149141 -0.0108895
0.0340663 0.0104177 -0.013951
0.0270962 -0.0139203 -0.00971248
0.0100646 -7.63524e-05 -0.0181677
0.0278314 -0.0138524 -0.00952793
0.0175311 -0.00779413 -0.0154353
0.0281211 -0.0141098 -0.0090928
0.0291713 -0.0141394 -0.00817369
0.0253768 0.0122057 -0.0172097
0.0297901 -0.0138571 -0.00791323
0.0357496 0.0320088 0.00297011
0.0301297 -0.0140819 -0.00741377
0.0375178 -0.0137113 -0.000417383
0.0401832 -0.0136985 0.0039994
0.0507521 0.00502366 0.0136831
0.0429266 -0.0137141 0.012001
0.0462917 -0.00423576 0.00267966
0.0427741 -0.0140947 0.014687
0.0427031 -0.0141543 0.0154974
0.0464804 -0.00821749 0.0128664
0.0439404 -0.0111868 0.00733555
0.042666 -0.014208 0.0172997
0.0417392 -0.0132183 0.00709429
0.0390482 -0.00874638 -0.00466662
0.0199208 -0.0145043 -0.0112962
0.0243321 -0.0139303 -0.0106156
0.0250594 -0.0138597 -0.0102959
0.0253532 -0.0140407 -0.0100869
0.0262698 -0.0139076 -0.00993269
0.047056 0.0203318 0.00650347
0.0370936 -0.0133732 -0.00171205
0.0378453 -0.0129095 -0.00154238
0.0475032 -0.000356687 0.0020612
0.0382075 -0.0134085 -2.27662e-05
0.0368473 0.00777451 -0.0122358
0.0387467 -0.0130869 0.000222458
0.0389139 -0.0133122 0.00100088
0.0252293 -0.00487209 -0.0152651
0.0397491 -0.0130191 0.00197049
0.0400825 -0.013421 0.00342492
0.0406115 -0.013051 0.00377452
0.0425167 0.0307872 0.0225412
0.0471665 0.0194045 0.00546622
0.0410436 -0.0134712 0.00588965
0.0428327 -0.0136217 0.0113885
0.0430246 -0.013699 0.0154407
0.0430002 -0.0137361 0.0162785
0.0430147 -0.0138157 0.0173036
0.0431285 -0.0137924 0.0182151
0.0430714 -0.0138175 0.0191352
0.0427478 -0.0140467 0.0201413
0.0411112 0.00854966 -0.00839326
0.0424993 -0.0139228 0.0217252
0.0499618 0.0125665 0.0211364
0.0453531 0.00587693 -0.00364609
0.0243287 0.00589337 -0.0176948
0.0280022 0.0347483 -0.00433508
0.0339691 0.015698 -0.0130639
0.0488735 -0.000419734 0.00643466
0.0177386 -0.0145967 -0.0120759
0.0207754 -0.013964 -0.0115409
0.0217132 -0.0138527 -0.0113916
0.0493617 0.00230274 0.00641367
0.0229836 -0.0141044 -0.0109913
0.0284129 -0.0136244 -0.00938734
0.0216475 0.0247722 -0.0142197
0.0210371 0.0248125 -0.0144627
0.0295875 -0.0135567 -0.00845306
0.0326237 -0.0132991 -0.00634403
0.0124301 0.0165418 -0.0192705
0.0333678 -0.0130717 -0.00611637
0.0355595 -0.013206 -0.0038091
0.0199072 0.00859918 -0.0189447
0.0360984 -0.0130595 -0.00350433
0.0307617 -0.00131574 -0.014497
0.0370514 0.0339578 0.0031083
0.0414006 -0.0129114 0.00560797
0.0416422 -0.0130176 0.0063931
0.00817996 -0.000134727 -0.0195519
0.0424913 -0.013009 0.00827705
0.0425949 -0.0131919 0.00917659
0.0427301 -0.0132859 0.00991073
0.00466969 -0.00507214 -0.0160547
0.0430504 -0.012938 0.0101083
0.0490621 -0.00260343 0.020378
0.0181098 0.0158652 -0.0184329
0.0431513 -0.0130501 0.0109403
0.0435518 -0.0130441 0.0136673
0.0452754 -0.0040612 0.000136057
0.0305939 0.0328292 -0.00332654
0.0179525 -0.013965 -0.0123554
0.0234359 0.00136675 -0.0176579
0.0198933 -0.0140167 -0.0118104
0.0172788 -0.00394709 -0.0171222
0.0279935 -0.0131895 -0.00991388
0.0253282 0.0227301 -0.0148304
0.0314392 -0.0127926 -0.00777072
0.0401985 0.0254291 -0.0021741
0.03759 -0.0126479 -0.00224229
0.0469395 -0.00674518 0.00733242
0.0484782 0.0193487 0.0172867
0.0393524 -0.0126271 0.000460419
0.0322658 0.0288565 -0.00671394
0.0410721 -0.0126857 0.00407221
0.0477473 0.00139884 0.0297008
0.0224563 0.0222125 -0.0152645
0.0451613 0.00402383 -0.00347836
0.0429367 -0.0128186 0.0092485
0.0448397 -0.010301 0.0164932
0.0434851 -0.012977 0.0145851
0.0356645 0.0326331 0.0039727
0.0427334 -0.00423157 -0.0036836
0.0434951 -0.0131671 0.0172606
0.00776139 0.0210668 -0.0188569
0.0504348 0.00865852 0.0109556
0.0197256 -0.0136965 -0.0120842
0.0232408 -0.0135292 -0.0111457
0.0251662 -0.0129964 -0.0106359
0.0303839 -0.012759 -0.00852353
0.0330931 -0.0127835 -0.006681
0.038756 -0.0121308 -0.00160599
0.039653 -0.012225 0.000147642
0.0401754 -0.0125823 0.00218584
0.0481335 -0.00246 0.0288696
0.0437245 -0.00458653 -0.00206698
0.0455666 -0.00733836 0.00485692
0.0435485 -0.0130273 0.0191082
0.0433146 -0.0130537 0.020063
0.0324142 -0.00666917 -0.0114436
0.0443177 0.0317761 0.0221604
0.0490336 -0.00330179 0.0163288
0.0205172 -0.0134805 -0.0120632
0.00884543 -0.00279317 -0.0175459
0.0225541 -0.0130284 -0.011678
0.0233769 -0.012967 -0.0113323
0.00338836 -0.0111416 -0.0131978
0.0487243 0.00674692 0.0270597
0.0494924 0.0104327 0.00740331
0.0278492 -0.0126527 -0.0102637
0.0333802 -0.0121796 -0.00705659
0.0455465 0.0265656 0.0239888
0.0443259 0.0158599 -0.00343776
0.0337544 -0.0124712 -0.00653569
0.0350526 -0.012026 -0.00601203
0.0353251 -0.0123098 -0.00551514
0.0359817 -0.0120582 -0.00512787
0.0198774 -0.0029453 -0.0167713
0.0363048 -0.0123396 -0.00438492
0.0313404 0.0342555 0.000283213
0.0395923 -0.0119571 -0.000657495
0.0399706 -0.0122778 0.000897774
0.0405974 -0.0121171 0.00189171
0.0259861 -0.0076198 -0.0138574
0.0414929 -0.012097 0.00375673
0.0272872 0.0284646 -0.00833722
0.0403138 -6.30438e-05 -0.00837442
0.041023 0.0306765 0.00865393
0.0416647 -0.0121993 0.00463209
0.0418157 -0.0123493 0.00532696
0.0423097 -0.0120195 0.00566256
0.0424111 -0.0122511 0.00651529
0.0426342 -0.0123783 0.00724459
0.0435985 -0.0123908 0.0108748
0.0474109 -0.00643749 0.00831801
0.0440132 -0.0120881 0.0119219
0.0437585 -0.0125524 0.012192
0.0417771 0.0230652 -0.00193981
0.0428607 0.0146552 -0.00576313
0.0438068 -0.0125756 0.0126756
0.0437705 -0.0127696 0.0182127
0.0429938 -0.0128625 0.0217474
0.048879 -0.00214393 0.00920642
0.042664 -0.013178 0.0226295
0.0411112 0.0156282 -0.00839326
0.0509519 0.00575864 0.0187512
0.0294562 -0.00200046 -0.0147804
0.0168291 -0.0135251 -0.0128512
0.0207712 0.0184545 -0.0170899
0.0189566 -0.0130541 -0.0125995
0.00737373 0.000653746 -0.018895
0.0215297 -0.0127841 -0.0121762
0.0288048 -0.0119974 -0.0103975
0.0300183 -0.012434 -0.00920673
0.0307169 -0.0122 -0.00883322
0.0316423 -0.0122707 -0.00814394
0.0323855 -0.0120219 -0.00788672
0.0260468 0.0193783 -0.0156412
0.0340555 -0.0119189 -0.00684273
0.0385322 -0.0118158 -0.00242695
0.0226852 -0.00376569 -0.016508
0.0361519 0.00776778 -0.0127165
0.0410706 0.0360997 0.0121364
0.041153 -0.0117961 0.00212914
0.0439704 -0.0119294 0.0110839
0.025264 0.0193938 -0.0158414
0.0498221 0.0103235 0.00909437
0.0440738 -0.0120114 0.0128238
0.00440394 -0.0145285 -0.0113055
0.0174073 -0.0131892 -0.0128497
0.0241271 -0.0126327 -0.0112105
0.0279541 -0.0120356 -0.0106391
0.0330805 -0.0117806 -0.00760292
0.0462206 0.0287992 0.0229564
0.0419397 -0.0117645 0.00404174
0.00430142 -0.00690652 -0.0167497
0.0398139 -0.00419738 -0.00719598
0.0438943 -0.0118151 0.0101471
0.0438203 -0.0121586 0.0190989
0.0436002 -0.0121868 0.0200512
0.0428919 -0.0126995 0.022491
0.00395535 -0.0139329 -0.0125491
0.0277515 -0.0083167 -0.0130131
0.0289822 0.0149686 -0.0153791
0.00471957 -0.0140682 -0.0116921
0.00533813 -0.0138121 -0.0116041
0.0313262 0.0308063 -0.00426149
0.0225091 -0.0120918 -0.012238
0.0419184 -0.00632107 -0.0029952
0.0228371 -0.0124526 -0.011845
0.0181799 0.00770037 -0.0193114
0.0234255 -0.0121691 -0.0117259
0.0251972 -0.0119069 -0.0112906
0.0350261 -0.0111007 -0.00678764
0.0353199 -0.0114335 -0.00630992
0.0359952 -0.0110827 -0.00604022
0.0437016 0.0102266 -0.00570653
0.0368933 -0.0112042 -0.00509894
0.0372254 -0.0114345 -0.0044737
0.038565 -0.0110983 -0.00322847
0.0394208 -0.0110562 -0.00229255
0.0234146 -0.0049263 -0.0158224
0.0362814 0.00318664 -0.0126587
0.0399462 -0.0114285 -0.00101109
0.0407024 -0.0113355 9.86153e-05
0.0414097 -0.01114 0.00116002
0.0500642 0.0128668 0.0129637
0.0416076 -0.0113274 0.00195219
0.0421969 -0.0110917 0.00293723
0.0146665 -0.000911946 -0.0173969
0.0434277 -0.0113357 0.00635237
0.0435353 -0.0115374 0.00720535
0.0432601 -0.0120949 0.0218621
0.0465397 -0.00835072 0.0164091
0.0424264 0.0059262 -0.00705541
0.00366887 -0.00933572 -0.0150854
0.0208982 -0.0121781 -0.0127533
0.0293743 -0.0116611 -0.0103222
0.0322616 -0.0100118 -0.00938796
0.0362833 -0.00144018 -0.0109555
0.0309412 -0.0115758 -0.00920835
0.0316169 -0.0113295 -0.00894899
0.0333214 -0.0111514 -0.00788559
0.0412173 -0.0109696 0.000290541
0.036982 0.0257452 -0.00531447
0.0420191 -0.0109701 0.00207927
0.0409404 0.0203727 -0.00548914
0.0430759 -0.011057 0.00472387
0.0438149 -0.0110434 0.00658964
0.044436 -0.0113927 0.0119154
0.0444847 -0.0113447 0.0127697
0.0443812 -0.0114269 0.0136704
0.0437407 -0.0118063 0.0197609
0.0431278 -0.0120225 0.0227995
0.0167611 -0.0118039 -0.0137689
0.0262351 -0.0112086 -0.0115881
0.0270055 -0.0112374 -0.0113501
0.0289403 -0.0111563 -0.010874
0.0313227 -0.0109355 -0.00941425
0.0429105 -0.0109344 0.00412313
0.0447034 -0.0110093 0.0118952
0.0444079 -0.0111358 0.0155167
0.0443254 -0.0111963 0.0172882
0.00366652 -0.0129906 -0.0133744
0.00447002 -0.0131259 -0.012591
0.0198171 0.00397396 -0.0185258
0.0266291 0.0243904 -0.012877
0.0225461 -0.0111931 -0.012649
0.023879 -0.0115534 -0.0118404
0.0245933 -0.0113595 -0.0118031
0.0252414 -0.0113066 -0.0117306
0.0368522 -0.0101925 -0.0059701
0.0370961 -0.0104979 -0.00542271
0.0376582 -0.0102117 -0.00506508
0.0388489 -0.0104101 -0.00352705
0.0397102 -0.0103482 -0.00257713
0.0233457 -0.000331413 -0.0171642
0.039965 -0.0106365 -0.00197864
0.0405583 -0.0103572 -0.00162793
0.0326491 0.0340707 0.00202988
0.040834 -0.010611 -0.000973393
0.0416827 -0.0104085 0.000121486
0.0422563 -0.0103261 0.00113549
0.0426583 -0.0105955 0.00284633
0.0432713 -0.0103518 0.00378147
0.0434875 -0.0105799 0.00462245
0.046875 0.00146102 0.000214851
0.0447851 -0.0108776 0.0111034
0.0503362 0.00944815 0.0110031
0.0447035 -0.0108886 0.0136787
0.043583 -0.0115025 0.021288
0.0199781 -0.0113211 -0.0135169
0.0243228 -0.00398858 -0.0159606
0.021589 -0.0111512 -0.0130957
0.0302181 -0.0108186 -0.0102607
0.0372134 0.00749126 -0.0118445
0.0484379 0.0157671 0.00566044
0.0319236 -0.010729 -0.00910657
0.0325322 -0.0103871 -0.00892525
0.0345244 -0.0105897 -0.00740207
0.0351775 -0.0103516 -0.00715958
0.0358933 -0.0101999 -0.00676433
0.0363073 -0.0103909 -0.00631387
0.0394471 -0.0100371 -0.00320056
0.044764 -0.010107 0.00745857
0.0249808 0.0215476 -0.0155319
0.0453286 0.0095574 -0.00360297
0.0450682 -0.0102607 0.00924039
0.0206301 0.000461584 -0.0182675
0.0451831 -0.010338 0.0110308
0.0451019 -0.0103289 0.0127788
0.0431318 -0.0111652 0.0245064
0.0500931 0.00230522 0.0102305
0.00547671 -0.0122792 -0.0131141
0.0188611 0.0300095 -0.0105317
0.0499201 0.0121862 0.00996409
0.0162518 -0.0113438 -0.0140511
0.0259269 -0.0108395 -0.0119932
0.0287824 -0.0102862 -0.0113696
0.0290722 -0.0106209 -0.0110455
0.0263828 0.0202895 -0.015437
0.0309234 -0.0103231 -0.0100391
0.0272575 0.00683622 -0.0172286
0.0410432 -0.0100865 -0.00131115
0.048843 -0.000482537 0.0243586
0.034309 0.0320928 0.00114493
0.0260877 0.00684117 -0.0174815
0.0493594 0.00947936 0.00559304
0.0420464 -0.0100833 0.000359774
0.0451286 -0.0102153 0.0136317
0.0145225 -0.0111342 -0.0140129
0.0450186 -0.0102642 0.0144744
0.0445372 -0.0105704 0.0182741
0.0407962 0.01784 -0.00713891
0.0437846 -0.010961 0.0214372
0.00354573 -0.0121198 -0.0133586
0.00445689 -0.0120368 -0.0132404
0.0471507 -0.00592823 0.0244674
0.0221642 -0.0108376 -0.0130105
0.0235776 -0.0105588 -0.0126957
0.0270192 -0.0101431 -0.0122013
0.0405121 -0.00935945 -0.0024577
0.0412749 -0.00938738 -0.00150975
0.0432402 -0.00947593 0.00196085
0.0457968 0.00146136 -0.00159012
0.0458196 0.0255598 0.0172419
0.0447106 -0.00991316 0.00654102
0.0448278 -0.010143 0.0181641
0.044278 -0.0104199 0.0209317
0.0441521 -0.0103311 0.0218404
0.0207238 -0.0102769 -0.0140053
0.0208609 -0.0106425 -0.013668
0.0481133 -0.00157062 0.00546808
0.0224996 -0.0102302 -0.0131152
0.0344353 -0.00970868 -0.00819622
0.035425 -0.00976405 -0.00744202
0.0370914 -0.00948506 -0.00622848
0.0489846 -0.000454811 0.0237439
0.0379456 -0.0094567 -0.00529305
0.0447452 0.01833 -0.00136571
0.0388373 -0.00940923 -0.00438642
0.039344 -0.00926808 -0.00397413
0.0225486 0.0239343 -0.0144114
0.0161225 -0.00823625 -0.0157416
0.0399872 -0.00960687 -0.00294007
0.0444213 0.0260345 0.00645989
0.0420395 -0.00927735 -0.000499693
0.0309921 -0.00881696 -0.0109201
0.0430259 -0.00925729 0.00118975
0.0435694 -0.00952282 0.00276435
0.0375605 -0.00025679 -0.0103033
0.0191134 0.0104785 -0.0190945
0.0416869 -0.00593728 -0.00359615
0.0441623 -0.00936252 0.00380037
0.0444372 -0.00942452 0.0045961
0.0444884 -0.00962536 0.00525619
0.0450365 -0.00939344 0.00649446
0.0492043 0.00252157 0.0252243
0.0216006 0.000458952 -0.0178755
0.0360528 0.0202344 -0.0104162
0.0451885 -0.00942274 0.00740871
0.0457494 -0.00944214 0.0110203
0.050374 0.00320863 0.0109645
0.0454775 -0.00984727 0.0117694
0.0447667 -0.0101144 0.0191382
0.0361603 0.00418616 -0.0126958
0.0433742 -0.0104462 0.0254762
0.0496683 0.0140262 0.021703
0.0500211 0.00248353 0.00943909
0.00633865 -0.0115068 -0.0136211
0.0369282 0.0221357 -0.00883838
0.016283 -0.0102264 -0.0144637
0.0170812 -0.0104937 -0.0144144
0.037176 -0.00216229 -0.0100092
0.0181 -0.0103294 -0.0144899
0.0296935 -0.0093459 -0.0113329
0.0306434 -0.00944087 -0.0107059
0.0313991 -0.00933881 -0.010301
0.0334636 -0.00949035 -0.00901076
0.0375709 -0.00929773 -0.00582532
0.048298 -0.00478028 0.0200046
0.0384319 -0.00923158 -0.00490065
0.0446734 -0.00916334 0.0048266
0.0393767 0.00760348 -0.0104199
0.0483577 0.0185264 0.0245034
0.0173376 0.0086129 -0.0194705
0.0457058 -0.00936379 0.0137247
0.0454551 -0.0096956 0.0139305
0.0453642 -0.00973164 0.014573
0.0453322 -0.00969153 0.0155177
0.0453088 -0.00968464 0.0162771
0.0447524 -0.01002 0.0199134
0.0439699 -0.0101114 0.0235581
0.0437977 -0.0101604 0.02436
0.0379647 0.026804 -0.00352333
0.0252727 -0.00980201 -0.0128264
0.0404475 0.018473 -0.00696793
0.0279829 -0.00936172 -0.0122877
0.0457672 -0.00919662 0.018271
0.0401437 -0.00909998 -0.00306915
0.0437404 -0.00906488 0.00236057
0.0440982 0.0329883 0.0228136
0.0457118 -0.00930243 0.0146551
0.0458017 -0.00918248 0.0155708
0.0437016 0.00578378 -0.00570653
0.0417192 -0.00136722 -0.00634031
0.0446984 0.026268 0.00841992
0.0453516 -0.0095914 0.0171513
0.0501886 0.00315174 0.00919589
0.0452817 -0.00964113 0.0181634
0.0170377 0.0015093 -0.0188099
0.0452015 -0.00954925 0.0198914
0.0504191 0.00507038 0.0101284
0.0450397 -0.0095179 0.020911
0.043763 -0.0100565 0.0249997
0.0261129 0.0283931 -0.00883786
0.0270359 -0.00404848 -0.0150724
0.0415849 0.00497499 -0.00793946
0.0455994 0.0246692 0.0217138
0.0328539 0.00950735 -0.0146286
0.0172768 -0.0100514 -0.0146757
0.0178565 -0.0100087 -0.0146717
0.0207845 -0.00947962 -0.0144002
0.0219147 -0.00975247 -0.0136427
0.0225871 -0.00948547 -0.0135113
0.0233597 -0.00939236 -0.0133399
0.0251788 -0.0092136 -0.0132291
0.0482503 -0.0039244 0.00848628
0.0423053 0.024778 0.000129502
0.0260343 -0.0092634 -0.0130673
0.0286559 -0.00914851 -0.0120999
0.0369489 -0.00852119 -0.00697401
0.037814 -0.00852546 -0.00605713
0.0399365 -0.00872325 -0.00367792
0.0431303 0.0274436 0.00561491
0.0415658 -0.00853213 -0.00169161
0.0418713 -0.00881309 -0.00107682
0.042341 -0.0084177 -0.000696635
0.0426647 -0.00860377 -6.25156e-05
0.0430478 -0.00848962 0.000316467
0.0440006 -0.00848002 0.00202949
0.0443012 -0.00858252 0.00289564
0.0379676 0.0330036 0.00722847
0.0444516 -0.00876301 0.00364242
0.0448104 -0.00834516 0.00385379
0.0504927 0.00413572 0.0209987
0.0450326 -0.00846846 0.00467872
0.0494848 0.000570501 0.0226437
0.0453334 -0.00881603 0.00641979
0.0457896 -0.00844237 0.00745536
0.0459629 -0.0085527 0.00834348
0.0457737 -0.00914649 0.0164823
0.0358056 -0.00185075 -0.0111162
0.0457642 -0.00920758 0.017306
0.05039 0.00411687 0.0101614
0.0414032 0.0229647 -0.00240414
0.0508264 0.00576964 0.0127739
0.0456425 -0.0092644 0.0190552
0.0449703 -0.00932808 0.0225408
0.0445815 -0.00963291 0.0228174
0.042566 -0.00685904 -0.00178456
0.0441171 -0.00964132 0.025363
0.01982 -0.00931768 -0.0147208
0.0200756 -0.0095749 -0.0146281
0.0459677 0.0248234 0.0164435
0.0269508 -0.00915137 -0.0129199
0.0341405 -0.00843472 -0.0094919
0.0492258 0.0174183 0.0174045
0.0363432 -0.00870709 -0.00735182
0.0412344 -0.00826791 -0.00231324
0.0456302 -0.00831867 0.0065672
0.0462281 -0.00866013 0.0110294
0.0462394 -0.00864637 0.011929
0.0462142 -0.00873402 0.0128055
0.0461893 -0.00878226 0.0145521
0.0496052 0.00239226 0.0235987
0.0441042 0.0321968 0.0224156
0.0461688 -0.008772 0.0153
0.0455935 -0.00917213 0.0198702
0.0371636 0.00586666 -0.0118307
0.0261674 -0.00852155 -0.01341
0.0072052 -0.00331863 -0.0173202
0.0298302 -0.00863513 -0.0117726
0.0437673 -0.00828671 0.00120724
0.0461792 -0.0087305 0.0163847
0.0393795 -0.00545826 -0.0066593
0.0461672 -0.00879908 0.018064
0.0461625 -0.00870854 0.0190058
0.0481188 0.0196682 0.0108942
0.045533 -0.0089887 0.0216654
0.0447055 -0.00919849 0.0254322
0.0274001 0.0212359 -0.0145416
0.0342435 0.0238677 -0.00957422
0.0235741 -0.00883213 -0.0136685
0.0471664 -0.00489648 0.00546613
0.0198282 0.00313903 -0.0184565
0.0244367 -0.00868808 -0.0136077
0.0475673 0.0253305 0.0247889
0.0469659 -0.00676965 0.0236273
0.0486194 -0.00209252 0.0245714
0.0296517 -0.00832915 -0.0120817
0.0356234 -0.00821721 -0.00849849
0.037483 -0.00816237 -0.00667766
0.039246 -0.00811537 -0.0048239
0.0434718 0.034576 0.0191621
0.0440901 -0.00763394 0.00111288
0.0443955 -0.00778816 0.00189527
0.0446959 -0.00805532 0.0030823
0.038405 0.00529869 -0.0110805
0.0455158 -0.00810362 0.0057357
0.0464554 -0.00824854 0.0110631
0.0500808 0.0120647 0.0236758
0.0465668 -0.00833375 0.017336
0.00373327 -0.00987726 -0.0135338
0.0452769 -0.00885563 0.0245218
0.019586 0.0325468 -0.00927605
0.0452415 -0.00863128 0.0255606
0.0036416 -0.00948634 -0.0160069
0.0377427 -0.00209236 -0.00954774
0.0429929 0.0341561 0.0172159
0.0157457 -0.00902629 -0.0151277
0.0380681 0.0131519 -0.010914
0.0188216 -0.00855401 -0.0150334
0.0198425 -0.00849151 -0.0149651
0.0242247 -0.00831753 -0.0138916
0.0483981 -0.00393481 0.0227479
0.033657 -0.00795806 -0.0100376
0.0343275 -0.00766473 -0.00988843
0.028848 0.00233582 -0.0160954
0.0353487 -0.00772097 -0.00904091
0.0151419 0.00944402 -0.0194734
0.0490066 0.00423967 0.0266819
0.0358922 -0.00751717 -0.00861628
0.0472171 -0.000768926 0.00178239
0.0362984 -0.00766224 -0.00815438
0.0433077 0.0329798 0.022536
0.0380528 -0.00771748 -0.00634782
0.0385599 -0.00757667 -0.00592334
0.0407388 -0.00760547 -0.00349837
0.0473633 0.00940334 0.000535602
0.0451592 -0.00756718 0.00377802
0.0297614 0.0202666 -0.0132517
0.0457154 -0.00762025 0.00558142
0.0462098 -0.0077016 0.00735198
0.0468161 -0.00760602 0.00917673
0.0402911 -0.0028066 -0.0076137
0.0254554 0.0130281 -0.0171956
0.0468351 -0.00758095 0.0100844
0.0467782 -0.00759343 0.0110223
0.0466918 -0.00765801 0.0118948
0.0467513 -0.0075737 0.0127312
0.0493772 0.00134393 0.0236237
0.0126283 0.0184543 -0.0178604
0.0465592 -0.00816267 0.0200429
0.0458401 0.0318384 0.0229973
0.0464784 -0.0081998 0.0209029
0.04619 -0.0083717 0.0226702
0.0245518 0.00105469 -0.0172751
0.0234981 -0.00592203 -0.0154201
0.0458115 -0.00841932 0.0244479
0.0486738 0.00862688 0.0281389
0.00453259 -0.00951223 -0.0137493
0.0156058 -0.00874654 -0.01537
0.0305162 -0.00750175 -0.0121945
0.044045 0.00869195 -0.00511185
0.0307166 -0.00785142 -0.0117973
0.0315504 -0.0076212 -0.0114865
0.0325407 -0.00767802 -0.0108128
0.0332877 -0.0074929 -0.0105218
0.0411111 -0.0074512 -0.00309341
0.0438375 -0.00738293 0.000408766
0.0469492 -0.00760018 0.0145934
0.0470604 -0.00759277 0.0154609
0.0469186 -0.00767616 0.0190655
0.0463997 -0.00815019 0.0217667
0.0456761 -0.00819004 0.0252133
0.0224513 -0.00806768 -0.0147132
0.0367659 -0.00208481 -0.0104084
0.0234678 -0.00790907 -0.0144326
0.0251628 -0.00762506 -0.0140453
0.0264538 -0.00772768 -0.0136807
0.0345243 0.0275989 -0.00626876
0.0271357 -0.007598 -0.0135711
0.0287491 -0.00740826 -0.0130909
0.0154979 0.0050297 -0.0188818
0.0420476 -0.0073051 -0.00217142
0.046709 0.0247213 0.0245023
0.041542 0.0194183 -0.00524709
0.0483678 -0.000358784 0.00474214
0.0465391 -0.00737399 0.00754145
0.0468923 -0.00753934 0.0200199
0.0467977 -0.00757503 0.0208961
0.0479456 -0.00226545 0.0280442
0.0278907 0.0260774 -0.0118252
0.0463199 -0.0079394 0.0230285
0.0415783 0.0310945 0.0172824
0.02639 0.0211901 -0.0154412
0.0463155 -0.00796078 0.0236208
0.0462777 -0.00786074 0.0244554
0.0384437 -0.0003041 -0.00934686
0.0315529 0.0176476 -0.0140488
0.0262302 0.00415356 -0.017268
0.0444556 0.0203227 9.93953e-05
0.0507567 0.0118036 0.0271131
0.00447061 -0.00867735 -0.0160567
0.0179973 -0.00757295 -0.0153706
0.00486233 -0.00885551 -0.0145782
0.00545079 -0.00867735 -0.0143589
0.0167225 -0.00811123 -0.0156358
0.0198377 -0.00761351 -0.0152402
0.0492347 0.00686586 0.00474356
0.0207843 -0.00766844 -0.0152005
0.0225149 -0.00752136 -0.0150031
0.0233038 -0.00739331 -0.0148367
0.0379323 -0.00676445 -0.00709927
0.0341487 0.0290676 -0.00505269
0.0382702 -0.00713954 -0.00651409
0.0397121 -0.00680476 -0.00529668
0.0406279 -0.00676068 -0.00435975
0.0220737 0.0295048 -0.00916721
0.0506766 0.00677631 0.0190994
0.0409257 -0.00707751 -0.00371458
0.0413651 -0.00667842 -0.00342406
0.0417186 -0.00690187 -0.00277467
0.043603 -0.00704306 -7.73296e-05
0.0444089 -0.00678935 0.00091837
0.0447064 -0.00657353 0.00125881
0.0458735 -0.00667683 0.00474096
0.0335879 0.0185687 -0.0126685
0.0461092 -0.00686635 0.00551805
0.0462859 -0.00701972 0.00623612
0.0431834 0.00321853 -0.00617742
0.0470815 -0.00693215 0.00821423
0.0473146 -0.00738763 0.0163513
0.0170327 -0.00747206 -0.0158318
0.0294691 -0.00718844 -0.0129581
0.0317184 -0.00693025 -0.0117954
0.0327701 -0.00706198 -0.0110405
0.0334163 -0.00668751 -0.010829
0.0439699 0.00681913 -0.00513603
0.0342155 -0.00662799 -0.0104203
0.0498735 -0.000429165 0.0127635
0.0286512 -0.000193559 -0.0155747
0.0377768 0.031828 0.0056813
0.0344702 -0.00699542 -0.0100959
0.0359987 -0.00670565 -0.00876841
0.0294583 0.0353246 -0.00157681
0.0143966 0.0157537 -0.0186358
0.0364815 -0.00694217 -0.00821215
0.0383977 -0.00658894 -0.00673321
0.0393888 -0.0065137 -0.00585651
0.0402861 -0.00650811 -0.00498914
0.0456369 -0.00652326 0.00391213
0.0471458 -0.00681701 0.010939
0.0471243 -0.00690341 0.0127883
0.0472236 -0.00699131 0.0137436
