ply
format ascii 1.0
comment Created by Open3D
element vertex 1565
property double x
property double y
property double z
end_header
0.0500958 0.0121535 0.01734
0.0500802 0.0121323 0.0181747
0.0436106 0.0213153 -0.000904285
0.0501271 0.0121776 0.0190449
0.000943371 -0.00859862 0.0435327
0.0338 -0.00563067 0.0242733
0.0501131 0.0122337 0.0199985
0.0499141 0.0123546 0.0226538
0.0127721 0.0140451 -0.0213582
0.0129957 0.0139128 -0.0208509
0.0218333 0.0321118 0.0362605
0.0133271 0.0140256 -0.0204259
0.0349125 0.00228512 0.010099
0.0217506 0.0131917 -0.0181769
0.0311 -0.00647903 0.0067473
0.00554596 -0.0265254 0.0165942
0.043535 0.0287733 0.0181047
0.0224518 0.0130329 -0.0179874
0.0242513 0.0131172 -0.0175354
0.0234308 0.0193856 0.00828338
0.0175689 -0.0150658 0.0137697
0.0360347 0.0121538 -0.0125707
0.02233 0.015776 -0.00709072
0.0500878 0.0121678 0.0119182
0.0421907 0.0356092 0.0138219
0.0503026 0.0122209 0.0137432
0.0499296 0.012525 0.0218139
0.0142837 0.0141232 -0.0194098
0.0153902 0.0140178 -0.0186768
0.016365 0.0139343 -0.0183882
0.0171619 0.0139922 -0.0183246
0.0268426 0.0129844 -0.0166183
0.032125 0.018286 0.0343092
0.0367409 0.0122323 -0.0121629
0.03184 -0.00139207 0.004511
0.0197 0.00417394 -0.00926014
0.0387347 0.0122285 -0.0105448
0.0392446 0.0120546 -0.0102263
0.0397587 0.0121499 -0.00972594
0.0364 0.0106695 0.0170312
0.00907733 0.0220127 -0.0157776
0.0405403 0.0121216 -0.00884211
0.049282 0.0121079 0.0064656
0.0242 -0.00491262 0.044056
0.00608114 0.0328955 0.0331672
0.0321 0.0184808 0.00668519
0.049386 0.0121681 0.00742997
0.0198746 0.0194867 0.0298929
0.0494889 0.0122308 0.00831732
0.0500556 0.012204 0.0109989
0.0501158 0.0127656 0.0248032
0.00287758 0.0295585 -0.0100159
0.050352 0.0129635 0.0255122
0.0509504 0.0127539 0.0260487
0.0190689 0.0136555 -0.0183717
0.0279263 0.0131637 -0.016116
0.042193 0.0301715 0.0164232
0.029903 0.0131852 -0.0154066
0.0306589 0.0131022 -0.0150773
0.0303667 -0.00566224 0.0048134
0.0419591 0.0122849 -0.0075747
0.0161172 0.0302695 0.0218115
0.0464709 0.0237899 0.00829001
0.0436106 0.0123129 -0.00553098
0.0358444 -0.00129149 0.0209241
0.0443643 0.0122635 -0.00451885
0.0499669 0.0126281 0.0179453
0.0160667 -0.0252732 0.0225623
0.0451517 0.0121974 -0.00346999
0.0454914 0.0119562 -0.00300666
0.0457592 0.0121935 -0.00248015
0.0445955 0.0262182 0.00784163
0.0461744 0.0122223 -0.0017312
0.0464832 0.0120729 -0.00128883
0.0472105 0.0121947 5.43162e-05
0.0476694 0.0122058 0.00102827
0.0331583 0.00144278 0.00649371
0.048599 0.0122758 0.0037759
0.032 -0.0054082 0.00770882
0.049034 0.012259 0.00540945
0.0429658 0.0263166 0.00299034
0.0250429 0.0113545 0.0191045
0.0499137 0.0130996 0.0182331
0.0499097 0.0131325 0.0191033
0.0500003 0.0126997 0.0192031
0.034775 -0.00474276 0.0216965
0.0495237 0.0195831 0.0253941
0.0499028 0.0131227 0.0200343
0.049774 0.0131725 0.0218682
0.0225333 -0.00394621 0.0461423
0.0171799 0.0284156 0.0128073
0.0039094 -0.0141726 0.0384287
0.03005 0.0104171 0.0400826
0.0222252 0.0203975 0.00379053
0.0398339 0.0328441 0.0110126
0.0499195 0.0132379 0.0251965
0.0245106 0.0167328 0.0110131
0.0504993 0.0131401 0.0260006
0.0212078 0.0137054 -0.018267
0.0237 0.0103342 -0.00648745
0.0111321 0.0130703 0.0419187
0.0217328 0.0140014 -0.018072
0.0225343 0.0139806 -0.0179194
0.031416 0.0130908 -0.0147525
0.0318928 0.0131721 -0.0146101
0.0325216 0.0131156 -0.0144209
0.049952 0.0131507 0.0173195
0.0315333 0.0068285 0.00199475
-0.00447957 0.0204 0.0462255
0.0203 0.0147234 0.0494153
0.0136575 0.0150369 -0.0196556
0.0142558 0.0147197 -0.0193583
0.00972538 -0.0127368 0.0358885
0.0145278 0.0149768 -0.0189972
0.0153014 0.0148224 -0.0186722
0.0234545 0.0032537 0.00387565
0.0162664 0.0148541 -0.0184925
0.02415 0.00770245 0.0467347
0.0281 0.030233 0.0285405
0.0462294 0.023115 0.00452873
0.0179712 0.014318 -0.018273
0.029078 0.0248649 -0.0118853
0.0244065 0.0140234 -0.017563
0.0250769 0.0139973 -0.0173655
0.0298556 -0.0120001 0.0262773
0.0143541 0.0168594 -0.0180713
0.023175 -0.00853249 0.043311
0.0338325 0.0131344 -0.0138004
0.0342914 0.0131021 -0.0135167
0.0316091 -0.011206 0.0218445
0.0360632 0.0130922 -0.0125118
0.0496643 0.0130216 0.0100827
0.0164185 -0.0112472 -0.00506152
0.0497984 0.0130747 0.0110033
0.03347 -0.00049316 0.0334927
0.0498425 0.0131748 0.0118897
0.0499145 0.013228 0.0126545
0.0117218 -0.0204063 0.0181972
0.0500815 0.0131237 0.0136937
0.0496126 0.0139176 0.0245537
0.0164454 0.0014149 0.0372907
0.049779 0.0139864 0.0254044
0.01422 -0.0121631 -0.00595015
0.00110114 0.0264777 -0.0142806
0.013996 -6.7605e-05 0.0393582
0.0181727 0.0147759 -0.018404
0.0262136 0.0140347 -0.0168189
0.0267506 0.0139933 -0.0165333
0.0199 0.0050156 -0.00924474
0.027145 0.0139632 -0.0163169
0.0278893 0.0140268 -0.016011
0.0287115 0.0139847 -0.0157203
0.0377072 0.0130563 -0.011267
0.0387052 0.0131207 -0.0104548
0.0249083 0.00240532 0.0190004
0.041419 0.0130477 -0.00796018
0.0481582 0.0126029 0.0026124
0.028125 0.00671385 -0.00195974
0.0489903 0.0130911 0.00554264
0.0491794 0.0130585 0.00647213
0.0493327 0.0131173 0.00824671
0.0494597 0.0131139 0.00915567
0.0497529 0.014016 0.0208602
0.0237 0.0123883 0.0463685
0.0495479 0.0140697 0.0236445
0.0254453 0.014058 0.0137274
0.0113179 -0.000971786 0.0411968
0.0341875 0.0023009 0.0325944
0.00651063 -0.00342606 0.0437233
0.0130393 0.0152992 -0.0200153
0.0212 0.0067797 -0.00858517
0.0188897 0.0150736 -0.018402
0.0198803 0.0149116 -0.018333
0.0207823 0.0148954 -0.0181754
0.0215872 0.0149257 -0.0180386
0.00757935 0.0338166 0.0309389
0.02795 0.010352 0.0426293
0.0439925 0.0282847 0.0181473
0.0305891 0.0139934 -0.0149182
0.031345 0.0139706 -0.0147089
0.011966 0.0167576 -0.0196742
0.0242825 -0.000338186 0.0110304
0.0419393 0.0128761 -0.00755907
0.0174438 -0.01026 0.0289864
0.0435567 0.0131353 -0.00541475
0.022567 0.0247748 -0.0140129
0.044326 0.0132117 -0.00435018
0.0450051 0.0131771 -0.00342661
0.0482456 0.019886 0.0127638
0.0457122 0.0131156 -0.00233179
0.0202 0.00725993 -0.00922165
0.0461457 0.0131414 -0.00159828
0.0466913 0.0131172 -0.000738735
0.0471243 0.0131941 0.000135901
0.0473757 0.0130239 0.000523758
0.0475474 0.0131369 0.00111448
0.0481582 0.013072 0.0026124
0.0482731 0.013083 0.00297813
0.011 -0.0176993 -0.00446194
0.0116333 0.0158406 -0.0213172
0.0189566 0.00953477 0.0353663
0.012393 0.0156795 -0.0204547
0.0063 -0.02674 0.00618487
0.0127074 0.0159521 -0.0196568
0.0132909 0.0156897 -0.0193129
0.041347 0.0149041 -0.0079534
0.0153766 0.0155498 -0.0185169
0.0224974 0.0149053 -0.0179
0.0127 -0.0120696 -0.00695153
0.0242778 0.0149302 -0.0175497
0.0035719 0.0381665 7.59635e-06
0.0318715 0.0140413 -0.0145969
0.0449104 0.0158105 -0.00249291
0.0324957 0.013982 -0.0144046
0.0332783 0.0140394 -0.0140269
0.0338325 0.0136232 -0.0138004
0.0369709 0.0339779 0.00393546
0.0390821 0.0133879 -0.0101078
0.0256 -0.0167737 0.0237903
0.0327562 0.023184 -0.0109313
0.0497974 0.0139954 0.0128517
0.0499024 0.0139953 0.0137535
0.0242429 0.0203717 0.0434265
0.0212 0.0119551 0.0493235
0.0500113 0.0136495 0.014622
0.0498612 0.014838 0.0262765
0.0297583 0.00135865 0.00111896
0.0209973 0.020494 0.0263567
0.0294778 -0.0112314 0.0298664
0.0298667 -0.00495325 0.0372534
0.0181937 -0.0138382 0.00561263
0.0118267 0.0161203 -0.0206013
0.0284 -0.0134724 0.0276756
0.0162365 0.0155911 -0.0184776
0.0455944 0.023734 0.00417181
0.0172399 0.015682 -0.0184396
0.0252837 0.0148885 -0.0171851
0.0261045 0.0149161 -0.0167311
0.027134 0.0149148 -0.0162226
0.0337202 0.0141303 -0.0137282
0.033875 0.0200511 0.015447
0.016 -0.0143853 -0.00312101
0.0361058 0.014016 -0.0122914
0.0366765 0.0137385 -0.0120078
0.0181167 -0.024042 0.0244856
0.0370445 0.0140337 -0.0116655
0.0375834 0.0139652 -0.0112286
0.02044 0.0363568 0.0290304
0.0221333 0.00964068 0.0486584
0.038023 0.0139419 -0.0108089
4.02295e-05 0.0274337 0.0415303
0.0427237 0.0133332 -0.00640042
0.037 0.00684813 0.0217836
0.0490826 0.0134401 0.00621363
0.0244857 -0.014839 0.0054861
0.0213842 0.0254081 -0.0139615
0.0493441 0.013975 0.00928323
0.019818 -0.01129 0.00827423
0.0448274 0.0139548 -0.00338997
0.0355 -0.000721502 0.0153745
0.02275 0.0314023 0.0361175
0.0496502 0.0139731 0.0119967
0.0103875 -0.0215279 0.0158084
0.02285 0.0157893 -0.00653487
0.0498883 0.0141853 0.014634
0.0289818 -0.00494141 0.00188734
0.0495585 0.0148636 0.0226128
0.0195995 0.0214876 -0.00314717
0.0121693 0.0162466 -0.0199221
0.02855 0.0137088 0.0412855
0.0130046 0.0162058 -0.0190755
0.0108 -0.0159013 -0.00599007
0.0207 -0.00677007 -0.0051567
0.0242622 0.0157796 0.0208878
-0.0127815 0.00379345 0.0491383
0.0189076 0.0157715 -0.018411
0.0198655 0.0157166 -0.0183254
0.0286512 0.014728 -0.0155747
0.0385187 0.0139985 -0.0103693
0.0389132 0.014088 -0.0100338
0.0396358 0.0140253 -0.00954883
0.0240942 0.0212193 0.0164176
0.01885 -0.0230415 0.027191
0.0405081 0.0140198 -0.00881787
0.0413487 0.0139624 -0.00794382
0.0229282 -0.00513281 0.0173159
0.0244 0.0304161 0.0353372
0.0234393 0.0166011 -0.0174819
0.0421886 0.0139038 -0.00693977
0.0228998 0.00222583 0.00106967
0.00509388 -0.0234876 0.0226438
0.014 -0.0223317 0.00602656
0.0429943 0.0138474 -0.00591357
0.0315594 0.0257296 -0.0105375
0.0202 0.0133253 -0.010068
0.0053324 0.0184803 0.044064
0.0433834 0.013999 -0.0053039
0.0353729 0.0276341 -0.00549906
0.0480352 0.013947 0.00278397
0.0484492 0.0139383 0.00376648
0.00771558 0.0223882 -0.0188362
0.0487301 0.0139397 0.00466448
0.0489004 0.0139986 0.00554416
0.0489606 0.0141581 0.00644215
0.0385281 0.027356 -0.00230744
0.0491132 0.0137879 0.00673321
-0.0030966 -0.00829041 0.0447635
0.0366812 0.00419308 0.0218508
0.0498701 0.014897 0.0192061
0.0232 -0.0119916 0.000543999
0.0215333 -0.0110468 -0.00223793
0.0351 -0.00401794 0.0182328
0.02706 0.0175886 -0.00159299
0.0496724 0.0148614 0.0209353
0.0495826 0.0149329 0.0218129
0.02594 -0.0136084 0.00658347
0.0213296 0.0210924 0.024416
0.0444288 0.0266912 0.00835302
0.0288085 0.0193867 -0.0141188
0.0110707 0.016894 -0.0214249
0.0115372 0.0168179 -0.020497
0.022 -0.0214696 0.0192595
0.0236487 0.018574 0.0191281
0.0127003 0.0168607 -0.0187774
0.0215247 0.0158061 -0.0179848
0.0287 0.0248292 0.033411
0.0224786 0.0158329 -0.017816
0.024325 0.00244738 0.0461876
0.031914 0.0149005 -0.0146233
0.0469569 0.0148722 0.00108172
0.0325114 0.014883 -0.0143314
0.0417504 0.0141501 -0.0073361
0.0437674 0.0140196 -0.00485937
0.0217 0.0341908 0.0296157
0.0452501 0.0140435 -0.00269119
0.0190714 0.0364558 0.0325927
0.0455511 0.013938 -0.00226316
0.020519 -0.00935055 0.00572668
0.0439772 0.0247203 0.00295076
0.0459642 0.0139821 -0.00158768
0.0121613 0.033264 0.024936
0.0469217 0.0139892 0.000170798
0.0471562 0.0140932 0.000943613
0.0473517 0.0139368 0.00128224
0.00940001 0.0340552 -0.00205698
0.0476432 0.0140302 0.00200382
0.0497715 0.0148755 0.0154794
0.0497528 0.0149077 0.0163744
0.0235143 -0.0122206 0.00114319
0.0252667 -0.0176331 0.0154844
0.0134433 0.0301154 0.025271
0.00185069 0.02392 0.0425659
0.0314909 -0.000416247 0.0371068
0.0444293 0.0186439 -0.00170077
0.0242793 0.0157032 -0.0174469
0.0074 0.00569351 -0.0153593
0.0347362 0.0146736 -0.0129351
0.02095 0.0039905 -0.0083229
0.0351455 0.0149294 -0.0125405
0.0239311 0.0121308 0.00475019
0.0493673 0.0148888 0.0110067
0.0496886 0.0148979 0.0126965
0.0166403 -0.00967971 -0.00362188
0.0497952 0.0149521 0.0136311
0.00990579 0.0302535 0.0308027
0.00617143 0.00581429 -0.0168747
0.0494859 0.0157415 0.0245302
0.0118427 0.0176042 -0.018763
0.0160594 0.0168784 -0.0180843
0.0356333 0.0154999 0.0252264
0.0170055 0.0168012 -0.0181456
0.0207418 -0.00408289 0.00100748
0.0180284 0.016837 -0.0180739
0.0235048 0.0175749 0.00641578
0.019854 0.0167393 -0.0179547
0.019565 -0.0111997 0.00474095
0.0245811 0.0160007 -0.0172911
0.023 -0.0199101 0.0193718
0.0434499 0.0284505 0.0099774
0.0265475 0.0158167 -0.0164184
0.0280091 0.0158056 -0.0157867
0.0197054 0.0263735 0.0199835
0.0216108 -0.000328057 -0.00165592
0.0288337 0.0158036 -0.0154185
0.036265 0.0149202 -0.0119204
0.006025 -0.00868073 -0.0107861
0.03185 -0.00872646 0.0274568
0.0165517 -0.00868343 0.0318317
0.0375621 0.0147536 -0.0111406
0.0355 -0.00240303 0.0227158
0.0172582 -0.014883 0.00825791
0.0379438 0.014964 -0.0106794
0.0217667 0.00688665 -0.00812672
0.0383963 0.0148209 -0.0102557
0.0445228 0.0142447 -0.00368424
0.0257 0.0094836 -0.00503011
0.0488968 0.0148544 0.0074084
0.0441229 0.0301925 0.022112
0.0492697 0.0148798 0.0100487
0.0495743 0.0157615 0.0209651
0.0247803 0.00882228 0.00817937
0.0253375 -0.00766574 -0.000759977
0.0494171 0.0157686 0.021833
0.03295 0.00324169 0.00489953
0.0493446 0.0157897 0.0226959
0.0329 0.0202352 0.0305948
0.0499009 0.0160232 0.0259809
0.033675 -0.00707695 0.015476
0.0108713 0.017527 -0.021337
0.0110692 0.0177402 -0.0206562
0.012626 0.017423 -0.0184312
0.00544573 0.0265823 0.0395677
0.0126892 0.017724 -0.0180717
0.0134404 0.0176415 -0.0178872
0.0216811 0.0166762 -0.0177044
0.0163109 -0.0138734 0.0263087
0.0491739 0.0178046 0.0189549
0.0298038 0.0158069 -0.0150582
0.00630252 -0.00760146 0.0418266
0.0306616 0.0158307 -0.0148259
0.0393526 0.0219716 -0.00673926
0.0405424 0.0149387 -0.00877849
0.0417601 0.0149204 -0.00726939
0.0420616 0.0149192 -0.0067638
0.018 -0.02124 0.00842106
0.0424932 0.0149446 -0.0061282
0.0337 0.0150778 0.00808811
0.0482787 0.0199744 0.0190879
0.0267 -0.0152784 0.0267632
0.044415 0.0149225 -0.00359104
0.0227 0.00241269 0.0477342
0.0457542 0.0148312 -0.00155151
0.0461769 0.0148594 -0.000803973
0.01545 -0.0068969 -0.00870753
0.046466 0.0146479 -0.000418554
0.0466427 0.0148461 0.000187414
0.0172577 0.0284207 0.0218199
0.047885 0.0148865 0.00288372
0.0483529 0.014833 0.00382666
0.0485763 0.0149649 0.00467951
0.0487156 0.014909 0.00557781
0.0487958 0.0149207 0.0065168
0.0167 -7.70397e-05 -0.0103621
0.0497782 0.0157812 0.0181783
0.0111629 0.017805 -0.0196152
0.0247227 0.00642744 0.00717903
0.0453732 0.0241668 0.00438869
0.0153527 0.0177606 -0.0176584
0.0162661 0.0175673 -0.0177264
0.0170994 0.0175992 -0.017683
0.0225694 0.0167619 -0.0175419
0.0096 -0.0117501 -0.00850225
0.024027 0.016324 -0.017384
0.03442 0.00227103 0.00912692
0.0313237 0.0157133 -0.0146958
0.0316704 0.0158659 -0.0145453
0.0329688 0.0156888 -0.0138297
0.0336111 -0.00680297 0.0236832
0.0334163 0.0158172 -0.0134497
0.0399051 0.0150592 -0.00914905
0.0496072 0.015793 0.0154365
0.0264 -0.0040392 -0.0017001
0.0495775 0.0157989 0.0164041
0.0106753 0.0184264 -0.0203765
0.0019 0.0399133 0.000101297
0.028525 -0.0118823 0.0083504
0.0107573 0.018253 -0.0196478
-0.00157224 0.0211514 0.0455232
0.0493174 0.0167436 0.0255201
0.0114609 0.0181451 -0.0183492
0.0189296 0.0174975 -0.0176464
0.0252613 0.0167275 -0.0167796
0.0260064 0.0165177 -0.0165556
0.0365273 0.0023719 0.0226918
0.0180797 0.00406084 0.036235
0.034872 0.0246274 -0.00846648
0.0356359 0.0154736 -0.0120769
0.0329 0.0112821 0.0348823
0.0316287 0.0312065 -0.00355085
0.04924 0.0157556 0.0110462
0.0496118 0.0158124 0.0127501
0.0491361 0.0164145 0.0227063
0.0282 -0.0150761 0.0227232
0.0316478 0.0272086 -0.00968446
0.0489857 0.0166743 0.0236124
0.00730796 0.0059523 0.0449755
0.0491742 0.0164716 0.0246722
0.0256128 0.00586927 0.0163707
0.00906503 -0.0194722 0.0272489
0.0178264 0.0193912 0.0334161
0.0137463 0.0184565 -0.017724
0.0145434 0.0185964 -0.0175435
0.0223333 -0.0189152 0.0100611
0.0206891 0.0175432 -0.0174986
0.0335333 0.0149483 0.0334783
0.0266 0.00206543 0.0438771
0.00101977 -0.0204789 0.0327937
0.0215902 0.0173361 -0.0174713
0.0277667 0.00680142 0.0432937
0.00566825 -0.0250092 0.0119823
0.0279179 0.0167108 -0.0157337
0.0354875 0.011471 0.0117975
0.0239805 0.000541822 0.00661454
0.0288658 0.0167536 -0.0152953
0.0185499 0.0271729 0.0164706
0.0297433 0.0166764 -0.0149631
0.037787 0.0157705 -0.0105509
0.0382192 0.0157683 -0.0100691
0.038683 0.0158088 -0.00962776
0.0393388 0.0364355 0.00647011
0.0392369 0.015569 -0.00933969
0.0219 -0.0150914 0.0365182
0.0396938 0.0158061 -0.00900548
0.0411112 0.0152743 -0.00839326
0.0226504 0.0149261 0.0010255
-0.00434519 0.0123034 0.0485928
0.043586 0.0152286 -0.00470686
0.0252625 0.00141414 0.0450704
0.0463663 0.0152133 -9.11448e-05
0.00629425 -0.0226496 0.0217314
0.048086 0.0152591 0.00348726
0.0484918 0.0158283 0.00653566
0.0488326 0.0157432 0.00827137
0.0363214 0.0249962 -0.00633964
0.0491383 0.0155792 0.00950997
0.0493398 0.0166268 0.020939
0.0490305 0.0169615 0.02519
0.03005 -0.00330516 0.00266977
0.010175 0.0187996 -0.0194763
0.0100919 0.0188744 -0.0186536
0.0161568 0.0182495 -0.0174156
0.0223117 0.0173368 -0.0173549
0.022 -0.0186909 0.0309299
0.0225096 0.0176548 -0.0171622
0.0234743 0.0175878 -0.0169858
0.0308224 0.016764 -0.0145341
0.0315764 0.016692 -0.0143081
0.0372509 0.0159907 -0.0109462
0.0211685 -0.00151886 -0.0016648
0.0405787 0.015776 -0.00863558
0.0187 -0.0218558 0.0110146
0.0414845 0.0158827 -0.00790469
0.0417805 0.0156127 -0.00743406
0.0431198 0.0158397 -0.00522429
0.0254375 0.0320653 0.0154274
0.0456337 0.0156857 -0.00133157
0.0462725 0.0159385 -3.55897e-06
0.0467939 0.0158562 0.00111261
0.0473661 0.0158024 0.00229768
0.0483327 0.0157281 0.00474328
0.02944 -0.011108 0.00924538
0.0490298 0.0160512 0.00997204
0.0221 0.0110316 0.0486722
0.0495601 0.016656 0.0182156
0.0238345 -0.00156461 0.00821747
0.0495692 0.016752 0.0190564
0.00871809 0.0192046 -0.0213998
0.00981222 0.019062 -0.0204047
0.0170887 0.020848 -0.0166014
0.00984025 0.0192101 -0.0196895
0.0246 -0.0123007 0.00253036
0.00985615 0.0193725 -0.0178486
0.0213 0.00228176 -0.00757978
0.0117197 0.0191151 -0.0176343
0.0178328 0.0184264 -0.0172127
0.0210649 -0.00947088 0.0190574
0.00765145 0.0220848 -0.0168806
0.018922 0.0184573 -0.0171462
0.0216933 0.0178716 -0.0172261
0.0243672 0.0176343 -0.0166806
0.0251799 0.0173393 -0.0165371
0.0165491 0.0132703 -0.011521
0.0213326 -0.00477467 0.0269509
0.0261174 0.0175966 -0.0161383
0.0342277 0.016732 -0.0124534
0.02608 -0.0146648 0.0298069
0.0158399 0.0185664 0.0357646
0.0349339 0.0166127 -0.0120642
0.0275 0.00178413 -0.00230173
0.0353868 0.0162491 -0.0119083
0.02068 0.0123449 0.0497081
0.0494073 0.0166945 0.0128648
0.012888 -0.00320675 0.0391973
0.049416 0.0167045 0.0136798
0.0493473 0.0167148 0.0146148
0.0188384 0.0237396 -0.000828996
0.0489703 0.0170663 0.0220191
0.0242125 0.00142708 -0.00495947
0.0285333 0.00229255 0.0420791
0.0159139 0.00584868 0.0386363
0.0486604 0.0175673 0.0245573
0.0488484 0.0176109 0.0254301
0.00899971 0.0194513 -0.0205121
0.0089747 0.0196188 -0.0184554
0.0117885 0.0274092 0.0344484
0.0108399 0.0194434 -0.0174248
0.0127097 0.019455 -0.0175862
0.0136822 0.0192566 -0.0176617
0.0170745 0.0186949 -0.0171594
0.0198534 0.0184923 -0.0171129
0.0253221 0.0177947 -0.0162608
0.0269818 0.0176306 -0.0158662
0.0288012 0.0176007 -0.0151349
0.0447766 0.0263696 0.0119053
0.0217 0.0364544 0.0235916
0.0293 0.0181783 0.0386615
0.033696 0.0168979 -0.0128368
0.0352824 0.0168418 -0.011789
0.0366742 0.016373 -0.0111784
0.0376096 0.0165035 -0.0103382
0.0379618 0.0167472 -0.00986255
0.0294333 0.0194582 0.0377472
0.0293 -0.00189391 0.0394436
0.0384657 0.0165347 -0.00948976
0.0481352 0.016046 0.00457251
0.0488699 0.0167168 0.0101178
0.0227167 0.0112502 -0.00723297
0.0491102 0.0165661 0.0112614
0.0492452 0.0167008 0.0119316
0.0352 0.00227888 0.0289508
0.0489437 0.0176185 0.0209063
0.00856568 0.0198275 -0.0201638
0.00820122 0.0203973 -0.0178201
0.00879087 0.0200056 -0.0175737
0.00891835 0.0203134 -0.017153
0.0113452 0.0196657 -0.0173495
0.0145517 0.0193441 -0.0174958
0.0162384 0.0193577 -0.0170742
0.0149 -0.0224668 0.00804562
0.0216713 0.0185149 -0.0169643
0.0225941 0.0184741 -0.0167801
0.023252 0.0183721 -0.0166064
0.0296409 0.0174761 -0.0147938
0.0306257 0.0175311 -0.0143547
0.0388877 0.0167469 -0.00904456
0.00645556 -0.0110897 -0.0115377
0.0396017 0.0167134 -0.00864422
0.0404607 0.0164204 -0.00848659
0.0409513 0.0162505 -0.0082703
0.0477327 0.0166948 0.00384218
0.0299889 -0.0105174 0.0100111
0.0482479 0.0163638 0.00576785
0.03636 0.00218044 0.0217723
0.0244011 0.00146366 0.0209582
0.048254 0.0166195 0.0064784
0.00276692 0.0212493 0.0434647
0.0484179 0.0166876 0.00737142
0.0214985 0.00854375 0.030801
0.0491789 0.0174678 0.0199803
0.0329 0.0218745 0.0173543
0.03525 -0.000435641 0.0127801
0.00812491 0.0203473 -0.0195272
0.0117534 0.0203516 -0.0169925
0.0252302 0.0113584 0.0182168
0.0171443 0.0194358 -0.0169385
0.024428 0.0185208 -0.0162038
0.0252482 0.0185377 -0.0160188
0.0177 -0.0153401 -0.00135026
0.0332759 0.0175151 -0.0131953
0.00756145 -0.0212568 0.0238032
0.0406515 0.016839 -0.00811444
0.049206 0.0198404 0.0248272
0.0417401 0.0167772 -0.00720398
0.0328 0.0153316 0.0346624
0.0260642 0.0227465 -0.0146555
0.0424271 0.0167121 -0.00606798
0.0441759 0.0166447 -0.00342805
0.0432954 0.0212708 -0.00159486
0.0484788 0.0194063 0.0200121
0.0445001 0.016724 -0.00282355
0.0447779 0.0166623 -0.00237571
0.006539 0.0140478 0.0445491
0.0122682 -0.0073615 0.0375508
0.0451902 0.0166623 -0.00166171
0.046225 0.0166858 0.000155023
0.0464518 0.0164212 0.000456817
0.0181167 0.00322443 -0.0105304
0.047364 0.0164541 0.0024368
0.0491692 0.0171766 0.0143635
0.0489213 0.0175871 0.015477
0.0483104 0.0183258 0.023716
0.0421684 0.0272108 0.00300447
0.0342692 0.0167688 0.0299164
0.020825 -0.0138959 0.0399376
0.00678687 0.020621 -0.0206448
0.00743506 0.020596 -0.0198221
0.002675 0.0392046 0.000100964
0.00839116 0.0206876 -0.0170661
0.0224885 0.00134269 0.00014876
-0.00442663 -0.00845695 0.0450005
0.0103503 0.0204211 -0.0168728
0.0136466 0.0199047 -0.0173635
0.019209 0.0191386 -0.0169291
0.0406529 0.0266839 0.000123937
0.0247609 0.0102281 0.00991287
0.0209033 0.0193065 -0.0171578
0.0235557 0.0187363 -0.0163337
0.0261659 0.0184482 -0.0158222
0.0336429 0.0177138 -0.0127288
0.031725 -0.0051033 0.0335441
0.0351525 0.0176773 -0.011554
0.0362822 0.0175979 -0.0108173
0.0472533 0.0168333 0.00254524
0.0481344 0.0169918 0.0064378
0.0348286 -0.00126872 0.0270014
0.0491264 0.0172563 0.0122893
0.0169 0.0381869 0.0361801
0.0307 -0.0103639 0.0119196
0.0125495 0.0229556 0.0360414
0.049146 0.0173396 0.0133234
0.0489332 0.0177288 0.0136881
0.0490064 0.0178507 0.0172149
0.0490064 0.0179059 0.0198815
0.0484502 0.0185239 0.0217182
0.00842554 0.000387413 0.0437565
0.00691324 0.0209294 -0.0202259
0.00719019 0.0212024 -0.0195907
0.00760184 0.0214311 -0.0179533
0.03413 0.0086096 0.0335096
-0.00919323 0.0230954 0.0467898
0.02345 0.0349204 0.0199838
0.0136974 0.0203438 -0.0170754
0.0344942 0.0331168 0.00344558
0.0145691 0.0202819 -0.0171155
0.0155134 0.020205 -0.0171966
0.0229222 -0.0040999 0.00709755
0.0223699 0.0190637 -0.0165875
0.0272098 0.0187118 -0.0153713
0.033425 0.0113525 0.0055992
0.0287231 0.0183679 -0.0147835
0.0165952 -0.00957233 0.031123
0.0251 -0.00488795 0.0432131
0.0297078 0.0185274 -0.0142646
0.0345604 0.0177074 -0.0119396
0.037217 0.0176455 -0.0100583
0.0393528 0.017339 -0.00843894
0.0399735 0.0171033 -0.00826394
0.0454341 0.0169091 -0.00110582
0.028125 -0.00224351 0.0408502
0.0480156 0.0175623 0.00651924
0.0482636 0.0174287 0.00750923
0.0483688 0.0176365 0.00831062
0.0485016 0.0175712 0.00918504
0.0486288 0.0176283 0.010072
0.0307889 -0.00932666 0.0101097
0.0209373 0.0223145 0.00200228
0.045885 0.0311228 0.0224751
0.0489738 0.0176591 0.012745
0.0427576 0.03029 0.0222583
0.0215593 0.0104093 0.0308248
0.0221795 0.0255771 -0.0134838
0.0366 0.0104054 0.0245463
0.0481449 0.0187712 0.0235895
0.0291333 0.00228029 -0.000179749
0.00843981 0.0214793 -0.0162818
0.0146112 -0.0140921 0.0282926
0.0171657 0.0203446 -0.016718
0.0177834 0.0204696 -0.0165732
0.0225681 0.0195842 -0.0163443
0.01878 -0.023597 0.0234388
0.0444134 0.0195843 -0.000807078
0.0274 -0.0125325 0.0324312
0.0199 -0.000452046 -0.00849089
0.0235026 0.0194362 -0.0161674
0.0243932 0.0193795 -0.0160247
0.048401 0.0202936 0.0227441
0.0290702 0.0185518 -0.0144989
0.0397165 0.0176838 -0.00806901
0.0410671 0.0172476 -0.00746976
0.0258 0.0270896 0.0358501
0.0413945 0.0175008 -0.00691697
0.0265 -0.00969269 0.0024887
0.0421073 0.0174034 -0.00600141
0.0424496 0.0176453 -0.00527521
0.0432235 0.0175773 -0.00433475
0.021775 -0.00320583 -0.00541177
-0.00315483 0.0113764 0.0482643
0.00448808 -0.0236373 0.0244264
0.0447095 0.0172799 -0.00216087
0.0449288 0.0175435 -0.00154575
0.026825 0.00602555 -0.00328184
0.0453417 0.0176044 -0.000865895
0.029875 -0.0103773 0.0308106
0.045603 0.0175277 -0.000479885
0.0459994 0.0175214 0.000214386
0.03651 0.0111456 0.0183534
0.0107925 -0.0212947 0.0127569
0.0465555 0.0173892 0.00123644
0.0468249 0.0175598 0.002003
0.03294 -0.00369727 0.0325498
0.0473059 0.0172304 0.00313628
0.0474478 0.0175054 0.00381836
0.0476069 0.0176825 0.00465764
0.0478167 0.0176005 0.00555422
0.0485331 0.0185343 0.0155419
0.0135216 -0.00846085 0.0353371
0.0394114 0.0210785 -0.00768739
0.02165 -0.0085046 -0.0037453
0.0488073 0.0184388 0.0172867
0.0246207 0.000574254 0.0190557
0.0481717 0.0188062 0.0230359
0.00669049 0.0215824 -0.0198118
0.00808453 0.0221023 -0.0160722
0.00899348 0.0215477 -0.0162228
0.03044 -0.0055896 0.0351159
0.00883255 -0.0111367 0.0378444
0.0271714 0.016706 -0.00185324
0.0190033 0.0200985 -0.0166186
0.0199082 0.0200547 -0.0165847
0.03365 -0.00415692 0.0282102
0.0153963 -0.003146 0.0370964
0.012826 -0.00949285 0.0354736
0.031634 0.0186624 -0.0136884
0.0346 -0.00329242 0.0136041
0.0141123 -0.0128938 -0.00354319
0.0331885 0.0184279 -0.0130937
0.0165392 0.0293241 0.0145247
0.0381867 0.0178917 -0.00915862
0.0416644 0.0178207 -0.00621288
0.00590001 -0.00939932 -0.0112697
0.0222333 0.018322 -0.00582986
0.0436147 0.0177128 -0.00369711
0.0486178 0.0184668 0.0128306
0.0485706 0.0185317 0.0136768
0.0481738 0.0191765 0.0228394
0.0120226 -0.0169203 0.0283763
0.0481671 0.0191974 0.0235612
0.0484478 0.0194089 0.024489
0.00664444 0.0218839 -0.0197915
0.000967523 0.00414394 0.0472992
0.00709728 0.0220841 -0.0193872
0.0245 -0.00786904 0.0418792
0.0303818 -0.00476192 0.00395211
0.0208101 0.0200096 -0.0165559
0.00566668 0.0204775 -0.0150854
0.0212086 0.0199568 -0.0164656
0.0219333 0.0104914 -0.00825415
0.00217449 0.033179 0.0348337
0.0217124 0.0203193 -0.016313
0.0264117 0.0195107 -0.0154536
0.0349417 0.00500588 0.030754
0.0366266 0.0193675 -0.0102608
0.0366882 0.0185039 -0.0103042
0.0371236 0.0185056 -0.00990007
0.022934 -0.00606435 0.0156771
0.0472439 0.0179155 0.00362881
0.03088 -0.00767419 0.0317373
0.0179001 0.0195277 -0.00427885
0.048377 0.0185175 0.0100914
0.0485244 0.0184982 0.0109467
0.0485834 0.0185559 0.0118989
0.000216386 0.0314224 0.0380752
0.0490091 0.0195056 0.0250864
0.0161881 0.0212154 -0.0167614
0.0182322 0.0206876 -0.016421
0.020811 0.0203846 -0.0163543
0.0236198 0.0202524 -0.0160894
0.02226 0.00763426 0.0487171
0.028022 0.0195204 -0.0144644
0.023 -0.00778748 0.0438924
0.03808 0.0185516 -0.00904342
0.034775 0.00594309 0.00868768
0.0390147 0.0186415 -0.00822451
0.0286 0.0279993 0.0163458
0.0395695 0.01848 -0.00780805
0.0324167 0.0104465 0.0363065
0.0475796 0.0184679 0.00559492
0.0286455 -0.00843694 0.00470592
0.0477552 0.0185395 0.00648368
0.0479182 0.0185136 0.00737666
0.048049 0.0185562 0.00827331
0.0482025 0.01828 0.00848918
0.0481195 0.0186746 0.00914539
0.0483555 0.0193872 0.0164875
0.00819363 0.027294 0.0370482
0.0485355 0.0193481 0.0182159
0.0101705 -0.00755505 -0.0134158
0.048257 0.0196707 0.0227336
0.0264 -0.0131788 0.0329867
0.00727484 0.0231024 -0.0159139
0.0180045 0.0212951 -0.0161486
0.0189821 0.0212781 -0.0161222
0.020675 0.00484271 -0.00876387
0.0205576 0.0227294 0.00379335
0.0298317 0.0195874 -0.01363
0.0315448 0.0194076 -0.0133183
0.0329877 0.0190876 -0.0129637
0.0417541 0.018592 -0.00541317
0.0421666 0.0184253 -0.00507641
0.0425951 0.0184905 -0.00452304
0.0429743 0.0184677 -0.00411631
0.0433856 0.0186179 -0.00345391
0.0440886 0.0185073 -0.00249514
0.0449891 0.0185498 -0.000701522
0.02755 0.0290576 0.00815891
0.0453032 0.0186873 4.73964e-05
0.0456494 0.0183891 0.000352727
0.0191881 -0.00705684 -0.000234692
0.0459931 0.0184194 0.00110848
0.0482785 0.0194484 0.0137457
0.0482949 0.0192686 0.0145634
0.0489474 0.0201419 0.0243794
0.0273 -0.0159937 0.0219773
0.0201034 0.0210941 -0.0161798
0.0425991 0.0294639 0.0145838
0.0216004 0.0212257 -0.0160203
0.0269826 0.0203354 -0.0150115
0.0274647 0.0203236 -0.0145798
0.0279425 0.0203123 -0.0141487
0.0340156 0.0192898 -0.0121166
0.0380542 0.0293696 -0.000863309
0.0350553 0.0193405 -0.0113157
0.0252186 0.00677183 0.0128312
0.0316234 0.02638 -0.0102768
0.0212333 0.0319018 0.037843
0.0472142 0.0187598 0.00465736
0.0349571 -0.00312242 0.0253782
0.0483289 0.0194371 0.0119082
0.02575 -0.0145994 0.0306196
0.0294833 0.00591665 0.0413302
0.0051 0.0208816 -0.0153076
0.0378473 0.0203272 -0.00893742
0.048318 0.0193558 0.0128142
0.0171136 0.0136807 -0.0133083
0.0482807 0.020021 0.0209746
0.0052895 -0.00388534 0.0440669
0.0494947 0.0203339 0.0246107
0.0293 -0.000851201 0.0404863
0.0065588 0.034714 -0.00502683
0.0350578 0.0343928 0.00358856
0.0353455 0.00864972 0.029874
0.0222905 0.0211606 -0.0159916
0.0286403 0.0200794 -0.0137935
0.030499 0.0201484 -0.0130941
0.0326091 0.019728 -0.0127194
0.0213691 0.013053 0.0307501
0.034231 0.0315616 -0.000510133
0.0355 0.000242304 0.0135494
0.027 0.0294216 0.0317483
0.037085 0.0194887 -0.0097269
-0.00694401 -0.0099731 0.0448274
0.037539 0.019354 -0.00934052
0.02596 -0.01656 0.0235542
0.03795 0.019393 -0.00898539
0.0385336 0.0193715 -0.00854886
0.0476986 0.0194278 0.00826637
0.0478806 0.0193625 0.0091761
0.0480482 0.0194146 0.010022
0.0165477 0.0267444 0.0302385
0.02275 0.0341634 0.0264538
0.0482916 0.0191709 0.0104436
0.0294 -0.00643141 0.00391318
0.0481795 0.0197272 0.0162493
0.0221 -0.0153435 0.00230754
0.030325 0.0237564 0.0315243
0.0482806 0.0199659 0.0180911
0.0470982 0.0212339 0.0083098
0.0482811 0.0200608 0.0200254
0.025125 -0.00839034 0.0404578
0.0064592 0.0238066 -0.0168123
0.00698835 0.0235639 -0.0168958
0.00285 0.0393157 0.00203849
0.02065 -0.0137523 -0.000662151
0.00611968 0.0237892 -0.0160004
0.0329167 -0.00922878 0.0207978
0.0364 0.00198452 0.0224714
0.02692 0.021871 -0.00146186
0.0180891 0.0220318 -0.0159354
0.0243537 0.0211065 -0.0157782
0.0315893 0.0199339 -0.0129524
0.0389638 0.019417 -0.008246
0.0394408 0.0194155 -0.00782493
0.0263 0.0212719 0.0406657
0.0411205 0.0193335 -0.00581057
0.0419536 0.0192461 -0.00486765
-0.00365651 -0.0191384 0.0359999
0.0423491 0.0193718 -0.00431234
0.0358667 0.00226448 0.0263144
0.0453156 0.0194922 0.00103442
0.00456584 0.018369 0.0444517
0.0458559 0.0193735 0.0019747
0.0117 -0.0230415 0.00568291
0.0461869 0.0194754 0.0027814
0.0465117 0.0191348 0.0031107
0.0360913 0.0352809 0.00826191
0.0466594 0.0193691 0.00380098
0.0179676 0.0167851 -0.012448
0.02805 0.0309713 0.0307939
0.0473703 0.0192528 0.0058478
0.0474567 0.0193951 0.00654741
0.0481693 0.0198275 0.0146318
0.0231 0.0149294 0.046883
0.0097 -0.02202 0.00193681
0.0480609 0.0202255 0.0163439
0.0480261 0.0203867 0.0172694
0.0482032 0.0201091 0.0176903
0.0479909 0.0204995 0.0182426
0.00246026 -0.0271373 0.00303427
0.0480778 0.0204081 0.0190331
0.0480911 0.0205502 0.0208296
0.01908 -0.0130598 0.0424018
0.0202427 0.000560046 0.0320387
0.0224111 0.00684916 0.048821
0.0264 0.00902426 0.0444895
0.0238037 0.0211978 -0.0157709
0.0237 0.00869101 0.0471901
0.0228472 0.0175443 0.00214753
0.0260402 0.0210469 -0.015657
0.0269647 0.0212188 -0.0150651
0.032 0.0060362 0.0377186
0.0348819 0.0327065 0.00311726
0.0181121 -0.0148741 0.0119089
0.0283838 0.0206465 -0.0136378
0.0188356 0.0273505 0.0190424
0.0444222 0.02688 0.0118415
0.0307385 0.0205362 -0.0127093
0.0248133 0.01642 0.014722
0.0315944 0.0203923 -0.0125103
0.02755 0.024556 0.0359628
0.0324074 0.0203995 -0.0122187
0.0254 0.0304228 0.00710047
0.0419575 0.0308181 0.0137392
0.0278417 -0.00403184 0.000213766
0.0209333 0.0122623 -0.0091652
-0.0042486 0.0032308 0.0484088
0.0114591 -0.0205841 0.00775226
0.0332071 0.0200916 -0.0121636
0.0433013 0.0346224 0.0208889
0.0338142 0.0199051 -0.012032
0.0340375 -0.00393402 0.0119299
0.0342523 0.0203098 -0.0114589
0.0441572 0.0194348 -0.00156753
0.0229104 0.0158513 0.025718
0.0446877 0.0193271 -0.00053204
0.0481655 0.019791 0.011625
0.0480637 0.0203824 0.0146773
0.0161544 -0.0120975 0.0289799
0.0492245 0.0211992 0.0239394
0.0044548 0.0250471 -0.0143841
0.0222667 0.00408497 -0.006891
0.0474526 0.0218158 0.0208569
0.0327667 0.0112962 0.00437141
0.0163042 0.0185408 0.0352602
0.0464623 0.0245377 0.0174085
0.019971 0.0222016 -0.0161093
0.0222916 0.0217202 -0.0156898
0.0278496 0.0212067 -0.0140631
0.0122667 -0.0263989 0.0109221
0.018875 0.00498729 -0.00982304
0.0177587 0.0167194 0.0341555
0.0282983 0.0211776 -0.0135859
0.023725 -0.0167064 0.00740953
0.029999 0.0207098 -0.0128402
0.0385937 0.0366092 0.0093606
0.0334882 0.0204801 -0.0117568
0.0349479 0.0200458 -0.0111684
0.0352757 0.0203697 -0.0108007
0.0198698 0.000560301 0.0325595
0.047213 0.0196704 0.00617526
0.0321333 0.00679073 0.00300011
0.0476607 0.0203096 0.0100738
0.0479085 0.0202677 0.0110399
0.0480573 0.020399 0.0118043
0.0482093 0.0200746 0.012101
0.0257588 0.00769591 0.0155623
0.0289219 0.0346534 -0.00348072
0.0476787 0.0211615 0.0190676
0.0476796 0.0211801 0.0200084
0.0479605 0.0213561 0.0217145
0.0276578 0.0236756 -0.0128953
0.00374249 0.0252103 -0.0147178
0.0348167 0.0165294 0.0120074
0.00444225 0.0251909 -0.0137058
0.0313904 0.0207878 -0.0122303
0.014518 -0.0122971 0.030929
0.0374981 0.0201686 -0.00925137
0.0385212 0.0203085 -0.00851259
0.0072125 -0.000434541 -0.0151854
0.039429 0.0202392 -0.00788033
0.0463547 0.019804 0.00358874
0.008996 -0.021992 0.0182185
0.0466601 0.0202583 0.00473192
0.0469095 0.02026 0.0056189
0.02335 -0.00659696 0.0441046
0.0399483 0.0312821 0.00744243
-0.0044648 0.0140515 0.0487333
0.0473468 0.020074 0.00745715
0.0474065 0.0201915 0.0083905
0.00978682 0.0318507 -0.00638458
0.0476604 0.0212283 0.0182359
0.0481469 0.0214525 0.0222929
0.0150962 -0.0170376 0.0214526
-0.000922579 0.0265862 -0.0151146
0.00347117 0.0259378 -0.0132377
0.0286 0.0298356 0.0288066
0.0198591 0.0226165 -0.016203
0.0218095 0.0223602 -0.0154249
-0.000166662 0.0158798 0.0466887
0.0210171 0.0122852 0.0316723
0.0252412 0.0220536 -0.0152309
0.0325249 0.0212151 -0.0115763
0.0402659 0.0202678 -0.00680734
0.0406636 0.0202994 -0.00610197
0.0413123 0.020239 -0.00510509
0.0425403 0.0203157 -0.00342579
0.0429537 0.0199645 -0.00310188
0.043182 0.0203231 -0.00248895
0.0435475 0.0204718 -0.00177347
0.044082 0.0203639 -0.000733465
0.0244236 -0.000297345 0.0127543
0.0455954 0.0200983 0.00222348
0.01964 -0.0217291 0.0137493
0.0458541 0.0202994 0.00288831
0.024 0.010171 0.0467952
0.0247961 0.0100211 0.022852
0.0219549 -0.00670158 0.00740642
0.027829 0.032881 -0.00587379
0.0462221 0.0203666 0.00371907
0.0199167 -0.0220373 0.0154048
0.026425 0.0168452 -0.0027918
0.0464839 0.0200729 0.00411248
0.03005 0.0104174 0.000857385
0.0472356 0.0205263 0.00816453
0.0233078 0.013163 0.00114405
0.0479371 0.0211706 0.0145152
0.000149711 0.026708 -0.0145407
0.0399939 0.0297205 0.00367147
0.00156805 0.026774 -0.0142131
0.0216865 0.0230009 -0.0151711
0.0357667 0.00950745 0.0119806
0.0224795 0.0230145 -0.0148311
-0.00501098 0.00133903 0.0484793
0.0272279 0.0221494 -0.0144399
0.0290866 0.0216395 -0.0127204
0.0308009 0.02143 -0.0118513
0.0340312 0.0210203 -0.0111896
0.0226833 0.00683314 -0.00723503
0.0262208 0.0239631 -0.0134128
0.0350442 0.0211705 -0.0104653
0.0238649 0.0086913 0.00458474
0.0199971 -0.00946281 0.00376405
0.0475311 0.0211581 0.0109877
0.0477495 0.0212284 0.0118738
0.00878691 0.0334678 -0.00661938
0.02576 0.032856 0.0218201
0.0293 -0.0144065 0.0181983
0.0479389 0.0211707 0.0127577
-0.00501295 -0.00780731 0.0454827
0.0473906 0.0217393 0.0199828
0.0483693 0.0219981 0.0229781
0.0261167 -0.0110666 0.0361528
0.0487621 0.0221378 0.0235661
0.00270706 0.0266119 -0.0132112
0.00429302 0.0263264 -0.0117643
0.0289332 0.0222493 -0.0125751
0.0295966 0.0220561 -0.0121372
0.0357667 0.0209763 -0.0102502
0.0360547 0.0212596 -0.00990695
0.0469854 0.021162 0.00741437
0.0230646 -0.00547424 0.0161509
0.0471986 0.0212184 0.00922544
0.0472967 0.0209157 0.00912023
0.0409578 0.0333968 0.018341
0.0473605 0.0211067 0.0101508
0.0471265 0.0222076 0.0199255
0.0232406 0.0049634 0.00204606
0.0471422 0.0222902 0.0209327
0.028025 -0.00854088 0.00374052
0.0175087 -0.0133043 0.024874
0.0174822 -0.016128 0.0105199
0.0211699 0.0232634 -0.0155327
0.00920073 -0.0222697 0.0127639
0.0233478 0.022957 -0.0147603
0.0347 -0.00378522 0.0252454
0.0216468 0.0319556 -0.00781566
0.0300205 0.0222061 -0.011803
0.0315061 0.0221085 -0.0114076
0.0371727 0.0213781 -0.00913495
0.0253844 0.0085794 0.0200329
0.0385211 0.0210019 -0.00841286
0.00362415 -0.027243 0.0100895
0.0407162 0.0329498 0.0192135
0.0389058 0.0212275 -0.00805315
6.2865e-05 -0.0222603 0.0319911
0.0397651 0.0212364 -0.00709814
0.00123334 0.0404328 0.000101865
0.0401514 0.0209222 -0.00675566
0.0403657 0.021035 -0.00606788
0.0199806 0.0309865 -0.00959267
0.0406944 0.0211525 -0.0052153
0.0117197 0.00505083 0.0423231
0.0410921 0.0208227 -0.00492639
0.0283 -0.0132214 0.0284895
0.0413788 0.0211276 -0.00424238
0.0186 0.034515 0.0361092
0.0445038 0.0212179 0.000825679
0.0447458 0.0210965 0.00126199
0.0222 0.0368202 0.020059
0.0026 0.0392798 0.00301252
0.0456953 0.0211712 0.002934
0.0465133 0.0212114 0.00473834
0.027925 0.0049772 0.0432658
0.0233333 0.00597125 0.0477512
0.046722 0.0212359 0.00565211
0.0468429 0.0212201 0.0065564
0.0472414 0.021456 0.0101245
0.0476551 0.022066 0.014641
0.0476077 0.0221022 0.0155089
0.032975 0.0218592 0.0208704
0.04759 0.0221028 0.0163949
0.0240985 0.00955473 0.0254602
0.0454941 0.0262119 0.0197981
0.0471547 0.0222867 0.0190744
0.00872589 -0.0224373 0.00828632
0.0472305 0.0224567 0.0217056
0.0490791 0.0223852 0.0242075
0.0304 0.0229791 0.00658423
0.02625 0.0176413 -0.00262893
0.000463267 0.0277276 -0.0145476
0.0202103 -0.00779211 0.0263281
0.000962624 0.0275889 -0.014266
0.00210806 0.0274771 -0.0133326
0.02596 -0.00297154 0.0432656
0.0024267 0.0275439 -0.0129465
0.0235672 0.0233332 -0.0145804
0.0188401 -0.00553908 -0.00333198
0.0227333 -0.0196793 0.0163783
0.0316364 0.0094667 0.0380778
0.0243074 0.0230564 -0.0146984
0.0269372 0.0228152 -0.0140434
0.035294 0.0215689 -0.0100691
0.0281571 -0.00770772 0.0372172
0.0416646 0.0214434 -0.00357762
0.0279857 -0.0130706 0.0299263
-0.00627026 -0.0102974 0.0446104
0.0425392 0.0213286 -0.00259264
0.0062458 -0.0236903 0.0181598
0.0467348 0.0229794 0.019907
0.0466949 0.0230805 0.0217891
0.0061 0.0194656 -0.0159826
0.02765 0.0191106 0.0404284
0.0478185 0.0231102 0.023524
0.00853378 0.0376889 0.028519
0.0485261 0.0229266 0.0237996
0.0489293 0.0229742 0.0242908
0.0212715 -0.00828474 0.00675663
0.00262158 0.0274402 -0.0124163
0.00351923 0.0274921 -0.0122379
0.0187928 0.0292286 -0.0104276
0.00342067 0.0275819 -0.011348
0.0234165 0.0239481 -0.0142815
0.0242865 0.0233401 -0.0145346
0.0385621 0.0355389 0.00754152
0.0251842 0.023274 -0.0144464
0.0272277 0.0231055 -0.0135402
0.0018239 0.0104852 0.0469409
0.0210333 0.0102911 0.049953
0.0213633 0.0140533 0.0307477
0.0278805 0.0230368 -0.0131318
0.0351702 0.0221234 -0.00992341
0.0233 -0.0119814 0.0386503
0.0382655 0.0214595 -0.00832225
0.0399778 0.0215646 -0.00619646
0.0278667 -0.0118647 0.00656587
0.0408982 0.021507 -0.00446225
0.0470427 0.0221214 0.0100804
0.0471834 0.0221338 0.010924
0.0470432 0.0230196 0.0181479
0.0127 -0.0239611 0.00908626
0.0468987 0.0229604 0.019031
0.0252781 0.0237903 -0.0140171
0.0305976 0.0230151 -0.0115701
0.0314812 0.0229652 -0.0113638
0.03549 0.00584112 0.0109051
0.0192683 0.0116545 0.0348264
0.026775 0.0203263 0.0404765
0.0379242 0.0221416 -0.00806892
0.02015 0.0233497 -0.0051333
0.0453162 0.0215535 0.00248999
0.0467331 0.0220676 0.00570413
0.0468147 0.0220748 0.00658539
0.0234 -0.00944774 0.0416244
0.0469077 0.0221189 0.00746473
0.0473736 0.0226828 0.0155534
0.004475 -0.0280887 0.00544448
0.047395 0.0227102 0.0164405
0.0366125 0.00419588 0.0199177
0.0198809 0.0175389 0.0317192
0.0473264 0.0228528 0.0170718
0.000117176 0.00949364 0.0476637
0.0466208 0.0234658 0.0228495
0.0211 -0.0132337 0.0401254
0.0471785 0.0234341 0.0235156
0.00327932 0.0280113 -0.01212
0.0358665 0.0342783 0.00312252
0.00364278 0.0280166 -0.0114405
0.0198636 0.0256978 0.0143952
0.00405111 0.0280113 -0.0107833
0.02105 -0.01506 0.0383215
0.020575 0.0247505 -0.0149632
0.0203889 0.00328969 -0.00401477
0.0259574 0.0236312 -0.0138404
0.00627851 0.0329298 -0.00444135
0.0274 -0.00669916 0.0393251
0.0307667 0.0113353 0.0389213
0.0323468 0.0229518 -0.0111452
0.0344702 0.022456 -0.0100959
0.0261545 -0.00760194 0.000180439
0.0184392 0.0188007 0.0329624
0.0395596 0.0221435 -0.00602075
0.0417056 0.0222225 -0.00276378
0.0168136 0.0140736 -0.00966482
0.0123153 -0.00829928 0.0367693
0.0116248 -0.0207655 0.00886534
0.0422582 0.0220394 -0.00235206
0.0152029 0.0318557 0.0209011
0.0440054 0.0220575 0.00026578
0.0207911 -0.00399136 0.0289763
0.0443686 0.0221066 0.00102645
0.0248 0.00182694 0.0456587
0.0446507 0.021881 0.00140394
0.045347 0.0220857 0.00274325
0.0465116 0.0221458 0.00470714
0.0472246 0.0224347 0.0117955
0.0295875 -0.0138169 0.0226685
0.0473384 0.0226269 0.0137924
0.0175619 0.0030683 0.0365818
0.0473095 0.0227124 0.0145424
0.00475001 -0.0282708 0.00630979
0.0152238 0.0193388 0.0361205
0.0471652 0.023121 0.0163426
0.0464265 0.0235894 0.020013
0.0461004 0.0238774 0.0209149
0.00469219 0.0329923 0.0338729
0.0459428 0.0240108 0.0218752
-0.000188097 0.0113048 0.0474758
0.0276097 0.035544 -0.00405856
0.0477694 0.0236963 0.023939
0.03359 0.0104075 0.0055655
0.0447695 0.0256303 0.006583
0.0482948 0.0235457 0.024049
0.0289004 0.0238761 -0.0121248
0.0338501 0.022925 -0.0102699
0.02405 -0.0118132 0.0379014
0.028975 0.000453438 0.000211777
0.0343049 0.0230261 -0.00992209
0.0426163 0.0222215 -0.00178641
0.0467839 0.0230056 0.0101521
0.0469931 0.0230176 0.0119195
0.0198111 0.0364351 0.0308433
0.047087 0.0230218 0.0127285
0.0262784 0.0269984 -0.0112844
0.0465823 0.0238245 0.018883
0.0463154 0.0241292 0.0236207
0.0234413 0.0246215 -0.0138984
0.0243124 0.0244687 -0.0137897
0.0273014 0.0241865 -0.0127792
0.0229 0.010681 0.0480662
-0.00276949 -0.0243033 0.0307969
0.0306374 0.0264487 -0.0103844
0.0297127 0.0239245 -0.0117582
0.0362 0.0149329 0.0236113
0.0360192 0.0230017 -0.00875289
0.0274 0.0208767 -0.000978016
0.0337 0.00994626 0.0338707
0.0245 0.0274888 0.0379808
0.0369703 0.0229819 -0.00791562
0.0349769 0.0320581 0.00206182
0.0225323 -0.00311308 0.0254092
0.0399452 0.0225143 -0.00461282
0.043679 0.0222959 -0.000145743
0.0219116 0.0322444 -0.00744807
0.0236333 -0.0139109 0.00273413
0.0468494 0.0229431 0.00745983
0.0467801 0.0229983 0.00830555
0.046772 0.022946 0.00924013
0.0466873 0.0238236 0.0164398
0.0238154 0.0132232 0.00470052
0.0466641 0.0239931 0.0182246
0.0461141 0.0242157 0.0200719
0.0222037 -0.00475803 0.00474209
0.0416905 0.0283795 0.00372124
0.0456824 0.0245721 0.0227242
0.026708 0.0294498 -0.00684033
0.0458225 0.0247219 0.0236068
0.0460641 0.0248982 0.0243568
0.0203388 0.0253837 -0.0147722
0.0216286 0.00490362 -0.00807671
0.0206857 0.0255291 -0.0142571
0.0228976 0.0250085 -0.0137401
0.0235741 0.0248871 -0.0136685
0.024337 0.0249287 -0.013407
0.0257 0.00854156 -0.00503011
0.0314859 0.0238659 -0.0111792
0.0324643 0.0239294 -0.0107368
0.0383695 0.0228233 -0.00674209
0.0362444 0.00140104 0.021821
0.0386706 0.0230056 -0.0060428
0.00940546 0.0260296 0.0375093
0.0329 0.0129214 0.0348823
0.0393131 0.0228843 -0.00510771
0.0396289 0.0230962 -0.00429915
0.0422975 0.0229516 -0.00155194
0.0428044 0.0225805 -0.00126065
0.0279048 0.0255893 -0.0121817
0.0434985 0.0230709 1.67213e-05
0.0438059 0.0228705 0.000373949
0.0338 0.0199402 0.012957
0.0441311 0.0229505 0.00111236
0.0444244 0.0231294 0.00190081
0.0237831 0.0149005 0.0237065
0.027925 0.0301482 0.0299709
0.0455283 0.0226787 0.00325738
0.022475 -0.0105208 0.0416681
0.0465358 0.022899 0.00497385
0.000666668 0.040926 -0.00252271
0.0096625 0.0329126 -0.00243656
0.0465951 0.0238042 0.013665
0.0466027 0.023747 0.0145183
0.0387653 0.0267455 -0.00259654
0.047795 0.0247953 0.0245612
0.02795 -0.00125766 -0.000709695
0.0172932 0.028506 0.0162807
0.00194985 0.0296923 -0.0104228
0.03566 -0.00131835 0.0236148
0.0023751 0.0296254 -0.0102862
0.00538385 -0.00928316 0.0414249
0.00367959 0.0294358 -0.00972676
0.0284 -0.015312 0.0213684
0.0220969 0.0198714 0.00312702
0.0216974 0.0256667 -0.013519
0.0273 -0.00577637 0.0400235
0.0262651 0.0250067 -0.0126576
0.0270965 0.0248561 -0.0125532
0.0279003 0.0247571 -0.0123252
0.0285565 0.0248046 -0.01211
0.0215081 0.0211502 0.023569
0.02135 -0.0101327 -0.00312605
0.0331805 0.0238834 -0.0103297
0.0336267 0.0239193 -0.00999681
0.0347592 0.0234683 -0.00939529
0.0362575 0.0233121 -0.00820023
0.0372569 0.0232229 -0.00726916
0.0465764 0.0238024 0.011106
0.0466051 0.0238096 0.011951
0.00433437 -0.0233616 0.0252926
0.0459137 0.0248585 0.0200582
0.02495 -0.0101637 0.000422895
0.0454425 0.0250561 0.0217754
0.0207542 0.0259929 -0.0134527
0.0231878 0.0255534 -0.0131375
0.024188 0.0253617 -0.0131051
0.020625 -0.0165194 0.00205513
0.0356234 0.0236484 -0.00849849
0.0219024 0.0158107 0.028014
0.0210867 -0.00225292 0.0292545
0.0359732 0.0238546 -0.00789257
0.0366881 0.0235582 -0.00745434
0.0274 0.0285661 0.0110864
0.03368 -0.00702656 0.0228111
0.0375231 0.0234793 -0.00670809
0.0192986 0.0269947 0.0189739
0.0123667 -0.0245248 0.00931053
0.0377156 0.0238626 -0.00597465
0.0390877 0.0234004 -0.00469807
0.0398777 0.0233666 -0.00362992
0.0425371 0.0232931 -0.000963545
0.0368392 0.031347 0.00295733
0.03185 -0.00796245 0.0109029
0.045371 0.0232607 0.00351821
0.0464983 0.0236205 0.00921743
0.0465247 0.0237292 0.0102231
0.0210333 -0.00483687 -0.00551563
0.0462699 0.0241782 0.0146419
0.046226 0.0242947 0.0155991
0.0154333 -0.0114202 -0.0053842
0.02686 0.0291829 0.0118855
0.0209 0.0205394 -0.0055218
0.0463178 0.0243472 0.0162248
0.0464675 0.0246557 0.0180839
0.0282667 0.000456332 -0.000970488
0.00356453 0.0220913 0.0426546
0.0451964 0.0257537 0.0227396
0.00539823 -0.0173899 0.03345
0.0453538 0.0256893 0.0234408
0.0256182 0.00591691 0.0145834
0.045954 0.025694 0.0245233
0.0465755 0.0256274 0.024751
0.021825 0.0239279 -0.00318322
0.02825 -0.00414872 0.000871421
0.0207996 0.0265377 -0.0124141
0.0328 -0.0043584 0.032138
0.0223659 0.0260367 -0.0126611
0.0235071 0.0259131 -0.0125512
-0.00175643 -0.00118459 0.0471851
0.0269909 -0.00936061 0.00291291
0.019 0.0241437 -0.00447017
0.0252327 0.0257537 -0.0124957
0.0315482 0.0248212 -0.0107569
0.0227667 0.0167666 -0.00635553
0.0229 -0.0196513 0.0170445
0.0372401 0.0240827 -0.00621825
0.0385299 0.02386 -0.00500711
0.039344 0.0238237 -0.00397413
0.039709 0.0239367 -0.00338867
0.0406344 0.0238783 -0.00253921
0.0412232 0.0235893 -0.00219927
-0.0044117 0.0221614 0.045508
0.0241 0.000473273 -0.0048276
0.0462425 0.0243169 0.0135942
0.0278222 0.0112887 -0.00255956
0.00688578 -0.0244087 0.0160735
0.045868 0.0247603 0.0146123
0.0168575 -0.00387731 0.0350876
0.0458117 0.0248764 0.0155232
0.0452521 0.0257116 0.0218123
0.0362085 0.0306342 1.48761e-05
0.0250914 0.0140967 0.0182004
0.00389092 0.0303334 -0.00966073
0.00595825 0.0302639 -0.00934668
0.0241889 -0.0166173 0.0298411
0.0197585 0.0268351 -0.0125772
0.027068 0.0256607 -0.0123834
0.0230485 -0.00452265 0.0207789
0.0324001 0.0247905 -0.0103924
0.0339179 0.0247265 -0.00941255
0.0345336 0.024292 -0.00908608
0.0353997 0.024223 -0.00818602
0.0419645 0.0237051 -0.00131541
0.0340733 0.0202382 0.0236247
0.043146 0.0238553 0.000281067
0.0250276 0.00230294 0.0127176
0.0434934 0.0240068 0.00105776
0.0438278 0.0236966 0.00131201
0.0225444 -0.0202648 0.0245177
-0.00352899 -0.00754545 0.0451791
0.0440266 0.0239227 0.00203958
0.0291 0.0278736 0.00856881
0.044341 0.0240446 0.0028508
0.0320667 -0.0109118 0.0209206
0.0447152 0.0237652 0.00312894
0.0340833 0.0166655 0.010158
0.0458513 0.0238322 0.00476683
0.00735556 -0.00133224 -0.0152081
0.0464886 0.0235978 0.00558738
0.0243571 0.0193773 0.0146121
0.0375384 0.0344494 0.00768506
0.0463076 0.0242422 0.0108738
0.0462956 0.0243265 0.0115862
0.0457883 0.0249282 0.0137409
0.0462659 0.025086 0.0181349
0.0457081 0.0256092 0.0200187
0.0188719 0.00679722 0.0353379
0.045407 0.0257234 0.0210473
0.00644591 0.030349 -0.00908538
0.016812 0.0235893 0.0306807
0.0203943 0.0270865 -0.011676
0.0309 0.0230538 0.008301
0.021686 0.0268308 -0.0116387
0.0228184 0.0267331 -0.0116774
0.01984 -0.0231645 0.0191025
0.0235735 0.0264122 -0.0119695
0.0371017 0.0284647 -0.00348797
0.0297262 0.0255694 -0.0113127
0.0356688 0.0244824 -0.00761975
