ply
format ascii 1.0
comment Created by Open3D
element vertex 1574
property double x
property double y
property double z
end_header
0.0147712 -0.00027375 0.0271059
-0.00813241 -0.000328599 0.0390412
-0.0103651 -0.000331546 0.0391883
-0.0144499 -0.00037086 0.0392164
-0.0154267 -0.000339377 0.0391213
-0.0162557 -0.000340818 0.0390418
-0.028533 0.0213776 0.0256667
-0.0131641 -7.02917e-05 0.0393546
0.0243946 0.000391906 -0.00799316
0.0231532 0.000226457 -0.00285974
0.0235505 0.000518924 0.00126025
-0.0315377 0.00685996 0.0268
0.0122475 0.0266682 0.0218979
0.00459061 0.000478474 0.0355509
0.00489097 0.0202921 0.03095
-0.0211362 0.00507247 0.0335417
-0.000966578 0.000592465 0.0377702
-0.00221199 0.000536204 0.0382283
-0.00364278 0.000560638 0.0385828
-0.0144897 0.000195836 0.0393116
0.0123023 -0.0123239 0.0211
-0.019031 0.000474849 0.0383924
-0.0175431 -0.00222482 0.03344
-0.0143964 0.000594996 0.0394021
0.0238452 0.00160224 -0.00713713
0.0226212 0.00136317 0.00739709
0.0214731 0.00139077 0.0146738
0.0110814 0.00680991 0.0297667
0.0201354 0.00151439 0.0192124
0.0164523 0.00133779 0.0243654
0.0122476 -0.00398678 0.0263909
-0.000325739 0.000946282 0.0376004
-0.000879422 0.0176275 0.0371695
-0.0073195 0.00143016 0.0391672
-0.0206646 0.00150526 0.0381094
0.00308099 -0.0228073 0.01465
-0.0216018 0.00131561 0.0378752
-0.024227 0.00147359 0.0376011
0.00680551 0.00145405 0.0344366
0.00302853 0.00119074 0.0365875
0.00223415 0.00145539 0.0369884
-0.00298981 0.0014602 0.0385226
0.0246752 0.00212985 -0.00766446
0.0219214 0.00230309 0.0118521
0.00315395 0.00169056 0.0367461
-0.021148 0.00234831 0.03814
0.016424 0.00682898 0.025075
0.0218132 0.00234015 0.01382
0.0212821 0.00238079 0.0174293
0.015579 0.0024828 0.0270574
0.00409533 0.0059227 0.0333385
0.0121281 0.00208842 0.0302946
0.0165729 0.0122085 0.0245038
0.00585539 0.00231667 0.0352598
0.00301519 0.00234382 0.0368853
-0.00173674 0.00234287 0.0382514
-0.00906364 0.00226855 0.0395275
0.023185 0.00310327 0.00651349
0.000583486 0.00262322 0.0376527
0.0252053 0.00329543 -0.00342869
0.0246232 0.00343232 -0.00238053
0.0218286 0.00321548 0.0146867
-0.007257 0.00318579 0.0395656
-0.0125422 0.00321685 0.0399674
-0.0135013 0.00328216 0.0400227
0.0215642 0.0114534 0.0120065
-0.0205437 0.0032372 0.0382458
-0.0215265 0.00325524 0.0380627
-0.014319 -0.00256475 0.0339
-0.0232988 0.00328372 0.0378927
0.0254628 0.00358169 -0.00271133
-0.00903111 0.0049796 0.0399225
0.0148843 0.0032603 0.0281357
0.00942213 0.00321386 0.0325722
0.00849143 0.00323456 0.0334143
-0.0130146 0.00409099 0.0356182
0.00669167 0.0030683 0.034819
0.0221275 0.0155631 0.01585
0.0223648 0.00416716 0.0100662
-0.0242941 0.00414337 0.0377966
0.0165425 0.00416703 0.0262449
0.00590209 0.00406637 0.0354265
0.00350154 0.00406728 0.0367859
0.0226573 0.000651785 0.01615
-0.00126471 0.00410745 0.0383229
0.0102949 0.0104364 0.02985
0.020428 0.0085624 0.0190574
-0.00452259 0.0148935 0.0386455
-0.0274485 0.0175605 0.0282556
0.00215197 0.023564 0.0333697
0.0222211 0.00493338 0.0108651
-0.0108309 0.0302619 0.0308099
0.0219016 0.00492523 0.0128355
0.0217696 0.00511774 0.0136892
0.0215839 0.00506404 0.0154631
0.0148956 0.0185087 0.0246
-0.0068176 0.00765675 0.0359
-0.0250349 0.00500311 0.0377789
-0.0295545 0.0213525 0.0248333
0.0185351 0.00499202 0.0227498
-0.00475872 0.00452281 0.0393515
-0.0125185 0.0269157 0.0338434
0.00208723 0.00499923 0.0374774
-0.0274192 0.0344783 0.019725
-0.000901206 0.00498676 0.0382694
-0.00421776 0.00495865 0.0392989
0.00954102 0.00526508 0.0331162
-0.0177024 -0.0150205 0.0266333
0.0204971 0.0214624 0.00837325
0.0217824 0.00592961 0.0137512
0.0213396 0.00593259 0.0163656
0.000865935 0.00587454 0.0378991
-0.0040082 0.00590071 0.0394378
0.0222875 0.00678426 0.0102923
0.0111975 0.00595795 0.0321021
-0.0154475 0.0353946 0.0214
0.00766313 0.00594255 0.0344602
0.00691895 0.00594119 0.0349187
0.00313249 0.00593779 0.0371511
-0.0265227 0.00677532 0.0369828
-0.000523033 0.0260526 0.031248
0.0219473 0.00681051 0.0128707
0.0218916 0.00689695 0.0136592
0.0213394 0.00678598 0.0164202
0.00476836 0.0196878 0.0339088
-0.017166 0.00679129 0.039601
0.0248843 0.00763063 0.00047096
0.0204459 0.00686537 0.0190389
-0.0322211 -0.00965842 0.0203
0.0200485 0.006825 0.0200381
-0.0126995 0.00679122 0.0402122
-0.0136314 0.00679035 0.040144
0.0167175 0.0196466 0.02205
-0.027794 -0.00404165 0.0275667
-0.0144386 0.00681863 0.0400712
-0.0163004 0.0362533 0.0256346
0.022277 0.00776009 0.0101664
0.0198227 0.0158386 0.0146846
0.00757761 0.0204204 0.0316838
-0.00546017 0.0068216 0.0396923
0.0221154 0.00780455 0.010903
0.0220462 0.00775669 0.0117898
0.0217456 0.00769373 0.01549
0.0015414 0.0194745 0.03205
0.0248124 0.00867247 0.000362367
0.020441 0.00766642 0.0190289
-0.022031 -0.0198665 0.0182
0.0180588 0.00764075 0.0235179
0.017091 0.00766544 0.0253797
-0.0247524 0.0256006 0.0252429
0.00399241 0.00719277 0.0366084
-0.0164695 0.00927495 0.034925
0.00840379 0.00776702 0.0338883
0.0195924 0.00946863 0.0211878
-0.0175974 0.0112724 0.0393738
-0.0153603 0.016747 0.0383593
-0.00644308 0.0104375 0.0397337
0.0193784 0.008639 0.0210601
-0.0135215 0.00863767 0.0400741
-0.0287714 0.00936689 0.0357792
0.00769032 -0.0187103 0.0176333
0.0148217 0.00859792 0.0281237
0.0141651 0.00863083 0.0290774
0.0113104 0.00860908 0.0318168
0.00945833 0.00834268 0.0331062
0.00754946 0.00858721 0.0343021
0.00214664 0.00858371 0.037472
-0.00139135 0.00866117 0.038718
-0.00347712 0.00865136 0.0392518
-0.0275095 -0.001195 0.02886
-0.00541543 0.00861515 0.0395574
-0.0100452 0.0345506 0.0279987
0.0271596 0.0101761 -0.00193962
-0.0142216 0.0370661 0.0223
0.0233148 0.0104639 0.00742279
0.0192294 0.0094806 0.0219067
0.00940154 0.00885302 0.0330236
-0.0118182 0.0187722 0.0383466
-0.00731351 0.00956597 0.0399027
0.0122099 -0.00136262 0.0274375
0.0213987 0.0230231 0.00568768
0.014825 -0.00764078 0.02186
0.014273 -0.0172892 0.0129
0.0102719 0.00948117 0.032521
-0.0319461 -0.0128542 0.019075
0.020548 0.0105112 0.0172186
0.0201953 0.010319 0.0190017
0.0226456 0.0112874 0.00928825
0.0222424 0.0112375 0.0101369
0.0176567 0.0104378 0.0238748
0.0213871 0.0112647 0.0137099
0.0113104 0.0103694 0.0318168
0.00777218 0.0102705 0.0340412
0.00230511 0.0103586 0.0372939
-0.00091455 0.0104076 0.0387664
-0.0108764 0.022439 0.0365326
-0.00728197 0.010461 0.0399358
-0.0175974 0.0122177 0.0393738
0.0243363 0.0123175 0.00288508
-0.0103821 0.0380479 0.0218333
0.0206217 0.0113183 0.0163698
0.0202274 0.0112761 0.0182814
0.022569 0.0121158 0.00919776
-0.0389305 0.00701277 0.0196
0.00513397 0.0366432 0.0215156
0.0157907 0.0113014 0.0262405
-0.0121162 0.03397 0.0238833
-0.00630391 0.0113383 0.0396085
0.00349635 0.0113336 0.0367793
-0.0276049 -0.0158795 0.02015
0.000100565 0.0113254 0.038245
-0.000963516 0.0112516 0.0386299
-0.00226138 0.0113115 0.0389745
-0.017067 0.0122247 0.0394782
0.0187229 0.0122879 0.0220208
0.0183464 0.0121269 0.0226747
0.0158107 0.0121928 0.0262385
-0.00604531 -0.0200292 0.0223
-0.0072829 0.0122391 0.0396079
0.0249513 0.0140373 0.00305342
0.0246099 0.0139777 0.00386253
-0.0245449 0.0112697 0.0314
-0.00108635 -0.0033424 0.033
0.0206512 0.0131155 0.0146022
0.0151689 0.0122363 0.0272015
-0.00363836 0.0122305 0.039072
0.0207449 -0.012992 0.0079
-0.00562604 0.012048 0.0393903
0.0068336 0.0122578 0.0343778
0.0214729 0.014 0.0120163
-0.00692895 -0.0161782 0.026
-0.0112862 0.0291038 0.0314345
-0.0204695 0.0136909 0.0384917
-0.0120009 0.0342009 0.0285216
0.00949896 0.0131506 0.0327219
-0.00358012 0.0132073 0.0388442
-0.0162115 0.0136137 0.0394396
0.0216574 0.0148922 0.011052
0.0195019 0.0139827 0.0211568
-0.016162 0.0141152 0.0392379
-0.023741 -0.00389903 0.0306375
0.0207477 0.0149738 0.0127175
-0.0152891 0.0143807 0.0392535
0.017665 0.020347 0.0164891
0.0111197 0.0140232 0.0315841
-0.0133775 0.0148231 0.0394316
-0.0234616 0.0158621 0.0374149
0.0204602 0.0158089 0.0128649
0.000961371 0.0142389 0.0374924
-0.0216121 0.0157804 0.0377464
-0.0224822 0.0157607 0.0376137
0.0161228 0.0149354 0.0254993
-0.0063565 0.0148362 0.0390471
0.021094 0.00143134 0.018025
-0.0252223 0.029809 0.0214
-0.0339573 0.00676768 0.02474
0.022043 0.0168005 0.00916469
-0.0202646 -0.0212217 0.0164333
0.0112672 0.0148361 0.0312921
0.0066443 0.0149177 0.0343304
0.00176862 0.0148984 0.0370662
0.0199551 0.0166494 0.0137156
-0.00203531 -0.0104915 0.02935
0.0179665 0.0157435 0.0218316
-0.0216677 0.0166688 0.0373359
-0.0262595 0.0169477 0.0365229
-0.0103287 0.0159965 0.039264
-0.0104257 0.039031 0.0207
0.0223481 0.0177141 0.00837683
0.0208079 0.0175464 0.0109156
0.0194611 0.0273231 0.0188
-0.00184615 0.0158381 0.0379338
-0.00274223 0.0157821 0.0381102
-0.00544915 0.0158895 0.0385954
0.00949205 -0.0212463 0.0128
0.0204617 0.0177001 0.0118084
0.0198755 0.0176625 0.0136808
-0.0372795 0.0147599 0.020575
0.00598771 0.0158132 0.0346
0.0210711 0.0184444 0.0100481
-0.00631559 0.0165477 0.0384894
0.00339063 0.0165662 0.0358877
-0.00626681 0.0169083 0.0383746
-0.0107853 0.0175344 0.0388039
-0.0144528 0.0178305 0.0383281
-0.0187838 0.0184414 0.0369988
0.0103157 0.0169405 0.0312256
0.0200244 0.0193956 0.0127261
0.0214395 0.00308094 0.0181
-0.00752779 0.037393 0.0247794
0.0186752 0.0230809 -0.0137843
0.0075448 0.0178043 0.0329986
0.0197897 0.0203272 0.0127718
-0.0157958 -0.0219505 0.018175
-0.00355491 0.0185166 0.0373574
-0.00457266 0.0183287 0.0376852
0.00493189 0.0184568 0.0343728
-0.0193909 0.0202933 0.0368586
-0.0077665 0.0320317 0.0265125
0.0120146 0.0175811 0.0269143
0.0204731 0.021138 0.00926468
-0.0052496 0.0188661 0.0374987
0.01423 0.019412 0.0264138
-0.00542845 0.0194409 0.0372363
-0.00673028 0.0193838 0.0328545
0.0123187 0.0194392 0.0286835
0.00505927 0.0189977 0.0340872
0.0156504 0.0230234 0.020925
0.0143336 0.00139733 0.026625
0.00405877 0.0194596 0.0345121
0.00182815 0.0194336 0.0355396
-0.0132999 0.02008 0.0375855
-0.010669 0.0200991 0.0376831
0.00706395 -0.00880471 0.0276
-0.0125913 0.0204517 0.0373785
-0.0277091 0.0224414 0.0257333
-0.01848 0.0212975 0.0365251
-0.0265718 0.00594585 0.0306818
0.0150751 0.0248359 0.0191352
0.0161708 0.0212706 0.0181456
0.0103393 0.0203306 0.0298707
-0.00943583 0.018151 0.034025
-0.00177664 0.0202596 0.036348
-0.00263773 0.020376 0.0364814
-0.00310714 0.020099 0.0366659
-0.0161906 0.0221446 0.0362687
0.0140183 0.021354 0.0237141
0.0068829 0.020135 0.0322837
-0.0108232 0.0212922 0.0369638
0.0192053 0.0229882 0.0109473
0.000283775 0.0206244 0.0357089
0.00343485 0.0251938 0.0294
-0.00536797 0.021263 0.0365196
-0.007232 0.0210576 0.0367379
0.0211347 0.0239073 0.00643477
-0.00135067 0.0211334 0.0359638
-0.00712972 0.0214057 0.0365635
-0.0126615 0.0221148 0.0365625
-0.0135549 0.0221725 0.0364625
0.0166293 0.0225382 0.0168417
0.00771576 0.021382 0.030985
0.00750408 0.0175302 0.0305571
-0.00797806 0.0216144 0.0365913
-0.0184792 0.022999 0.0361181
0.0159253 0.0023701 0.0247667
0.0134366 0.0220275 0.0245971
0.0103582 -0.00121109 0.0289182
0.0189278 0.023896 0.0137364
0.0119691 0.0215813 0.0283658
-0.0158231 0.031405 0.0247667
0.00399476 0.0338897 0.0235655
-0.00276537 0.0218789 0.0358912
0.0117384 0.0235729 0.0259
0.00284918 -0.0125993 0.0268
0.0206597 0.0245693 0.00754808
0.00326626 0.0217293 0.0340254
0.00154265 0.0218215 0.0349821
-0.0181065 0.0237732 0.0359438
0.0152274 0.0239091 0.01826
0.013095 0.0229183 0.0246559
-0.0193681 0.0224242 0.03115
-0.00262819 0.0222953 0.0356581
-0.0275388 0.0257355 0.0235625
-0.007271 0.0229062 0.0361687
0.0197849 0.024716 0.0120946
0.011189 0.022939 0.0280288
-0.00719925 0.0236967 0.0359108
-0.0144317 0.0243013 0.0356986
0.0281038 -0.0062801 0.00840001
-0.0134592 0.0247719 0.0355557
0.0125539 0.0248518 0.0227165
0.00949685 0.0236098 0.0285807
0.00887914 0.0237179 0.0287063
0.00687474 0.0237059 0.0295749
-0.00955348 0.0243363 0.0356534
0.0112203 -0.012971 0.0209444
0.0168139 0.0257001 0.0164858
0.0122024 0.0247696 0.024449
0.00905354 0.0241307 0.0282428
-0.0149434 -0.0160004 0.0265
0.00632029 0.0242668 0.0293466
-0.0113946 0.0391856 0.0207
-0.00763952 -0.0149854 0.0274
0.0152384 0.0257238 0.0191458
-0.0210738 -0.00819309 0.0296
0.00381422 0.0242721 0.031111
0.00119811 0.0241957 0.0330255
-0.00062382 0.0242394 0.0338465
0.018536 -0.00763056 0.01756
-0.00237113 0.0245961 0.0340817
-0.00407265 0.0247499 0.0343393
-0.0254609 0.0194126 0.0287
-0.0130563 0.0255119 0.0350199
-0.0143544 0.0256547 0.0350188
0.0144466 0.0257512 0.0200264
0.00842978 0.0247788 0.0270739
-0.0204303 -0.0105721 0.0285
-0.0111873 -0.0221307 0.01915
0.00861201 0.0246553 0.0277059
0.00193543 0.0127714 0.0331
0.0031348 0.0248345 0.0308489
-0.0105409 0.0356577 0.02346
-0.000133765 0.024567 0.0332172
-0.00679032 0.0249974 0.0348086
-0.0108325 0.0257805 0.0344722
0.0122944 0.0185401 0.0265556
0.0174413 0.0266478 0.0161576
0.0075837 0.0246626 0.0270599
-0.00628177 0.0254593 0.0341975
-0.00815303 0.0256556 0.0342675
0.00343439 0.0254194 0.0297483
0.00255685 0.0253166 0.030509
-0.00195949 0.0252941 0.033232
-0.0129176 0.00525128 0.0358
-0.00277921 0.0255132 0.0332626
-0.0369511 0.016528 0.0205
0.0134979 0.0266064 0.0208002
0.0129081 0.0266331 0.0212611
0.00543786 0.0259825 0.0274889
-0.00777313 0.0261278 0.0337017
-0.0145419 -0.00902681 0.0313
-0.0160529 0.0270389 0.0338633
-0.0161826 0.0274623 0.0334994
0.00856277 0.0265815 0.0252968
0.00784443 0.0265719 0.025641
0.00315532 0.0258036 0.0291243
0.0170977 0.0190506 0.0223
0.0226177 0.00603632 0.0163667
0.0157872 0.0275024 0.0172124
0.0152352 0.0275108 0.0181085
0.00169717 0.0264425 0.0296197
-0.00708305 0.0268437 0.0328799
-0.0081479 0.0268772 0.0328789
0.00853242 0.0269439 0.0248905
-0.0112349 0.0276593 0.0326982
-0.014855 0.028405 0.0324442
-0.0206561 0.0241521 0.0294
-0.00590435 0.014316 0.0347
-0.0212331 0.0249686 0.028075
0.0115103 0.0274926 0.022872
0.010368 0.0274914 0.0238103
0.00870873 0.0274591 0.0246281
0.00536439 0.0274125 0.0264344
0.00411601 0.0275712 0.027334
0.00754197 -0.0092912 0.02705
0.00308435 0.0274031 0.0279111
0.000255418 0.0274071 0.0295029
0.00411919 -0.00594813 0.03025
-0.000470367 0.027485 0.0296122
-0.0044718 0.0271133 0.0322576
-0.0125335 0.0281234 0.0324471
-0.0135465 0.0283088 0.0323585
-0.00725354 0.0277538 0.0320739
-0.0168566 0.0291301 0.0316715
-0.00230714 0.0381541 0.0226555
-0.00431709 -0.0269271 0.0119
0.015682 0.0285884 0.0168113
-0.0171279 0.0295485 0.031193
0.0113594 0.0283256 0.0229479
-0.00551105 0.028222 0.0314335
0.0103531 0.0346998 -0.00509111
0.0155672 0.0292741 0.0172735
0.00401514 0.0283223 0.0273112
-0.00496372 0.0283919 0.0308026
-0.00225239 0.028376 0.0299882
-0.00805843 0.0294362 0.0310759
-0.0107047 0.0295496 0.0311219
0.000928507 0.0139042 0.0331
0.000289812 0.0293968 0.0287597
0.0137291 0.0291516 0.0207389
-0.0372627 0.0183002 0.01995
0.00773888 0.0293044 0.0246063
-0.00492215 0.0292962 0.0310158
-0.0167748 0.0306887 0.0303541
-0.017219 0.0312071 0.0298889
0.0147133 0.030213 0.019847
-0.0212727 0.0316438 0.0285631
0.01597 0.0247161 0.0203667
0.00913777 0.0357969 -0.0057953
0.00943433 0.0293566 0.0235625
-0.013051 0.0310383 0.0305498
0.00396927 0.0302032 0.0260566
-0.0003196 0.030222 0.0283697
0.0110473 0.0297941 0.0247
0.00411325 0.000186667 0.0321
-0.00264128 0.0303413 0.0291718
-0.0103771 0.0310808 0.0306345
0.0095287 0.0302833 0.02283
-0.0175179 0.0322038 0.0291665
-0.0336007 0.0236648 0.0214
0.0283005 -0.00119484 0.00525
0.00581698 0.0303897 0.0249317
-0.00407641 0.0310773 0.0290079
-0.00675623 0.0312123 0.0299174
0.0150496 0.0311102 0.019428
0.0107179 0.0308077 0.0214672
-0.0139461 0.0214326 0.03195
0.0104856 0.0312331 0.0211145
0.00145854 0.030821 0.0267553
-0.000499577 0.0310443 0.028109
-0.00538201 0.0313371 0.0292613
-0.00945799 0.0317984 0.0304637
-0.0169731 0.0331566 0.0285056
-0.0179304 0.0335223 0.0279036
-0.0189486 0.0338136 0.0274522
-0.00174293 0.0314218 0.0283727
-0.00729811 0.031993 0.0297325
-0.0184809 0.0364234 0.0189083
-0.0214439 0.0346527 0.0272185
0.00826101 -0.0215607 0.0133
0.0026741 -0.026858 0.00930001
0.010874 0.0320128 0.020577
0.00423948 0.011311 0.032925
0.00770517 0.0318483 0.0224917
-0.00767558 0.00765675 0.0359
0.00456454 0.0316959 0.0250198
-0.00764395 -0.027166 0.01276
0.00186772 0.0320686 0.0256414
-0.0257386 -0.0121075 0.0247167
0.000687985 0.0317229 0.0268537
-0.0107893 0.0328152 0.0298082
-0.0153524 0.0335636 0.0287246
0.000211471 0.0323089 0.02659
0.00979757 0.0328855 0.0201894
-0.0361893 0.0139877 0.02152
-0.00601627 0.0330116 0.028415
-0.0149625 0.0340732 0.028384
0.0117243 0.0328901 0.0207514
0.0040294 0.033039 0.0245629
0.0032156 0.0331132 0.0246996
-0.0155042 0.0349305 0.0271572
-0.0292185 0.00680399 0.0289571
-0.00716172 0.0337422 0.0281815
-0.00944529 0.0341292 0.0283067
-0.0124968 0.0344996 0.0281729
-0.0223907 0.0167774 0.032025
-0.0144272 0.034793 0.0274976
0.0100533 -0.000198934 0.02965
-0.0163759 0.0355822 0.0261978
0.00742439 0.0337948 0.0207338
-0.000202145 0.0336336 0.0251738
-0.0135838 0.0349414 0.027588
0.00667356 0.0340516 0.0212041
0.00294159 0.0339695 0.0231277
0.000416094 0.0341415 0.023893
-0.000617541 0.0341129 0.0246053
-0.00588164 0.0346785 0.026364
-0.0122688 0.0296004 0.0275
-0.0184439 -0.020423 0.01915
0.0111308 0.000486203 0.02895
0.00163051 0.034422 0.0231919
0.000428446 0.0346799 0.0234982
-0.00669652 -0.017553 0.0246111
-0.00133325 0.0347486 0.0244796
-0.0081126 0.0349506 0.0273852
-0.0172704 0.033463 0.0223
-0.0126069 0.035676 0.0273242
-0.0175338 0.0311572 0.02458
-0.0199335 0.0261332 0.0276
0.00983845 0.03461 0.0200552
-0.0134884 0.036275 0.0268401
0.00202776 0.0315787 0.028
0.00327446 0.0350123 0.0221273
-5.27055e-05 0.0354502 0.0232977
-0.00222832 0.0356012 0.0244238
-0.00840193 0.0355116 0.0269056
0.00318266 0.0356507 0.021937
-0.0265837 0.0304613 0.0203
-0.013044 -0.0173521 0.02534
0.00176853 0.0356795 0.0225873
-0.0101458 0.0254822 0.0304
-0.0154615 0.0334249 0.0234
0.00584152 0.0353647 0.0214535
-0.017661 0.0251938 0.0294
-0.00934521 0.0362302 0.0268729
-0.000311962 0.0362093 0.0231971
-0.00283065 0.0362648 0.0244396
-0.026479 0.0289711 0.0214
0.00177591 0.0365022 0.0226653
0.00218511 0.0122567 0.0332
-0.00544571 0.0367717 0.024737
-0.00846214 0.0372765 0.0253604
0.00498224 0.0122056 0.0325417
-0.000653102 0.0367517 0.0231247
-0.0239568 -0.0202574 0.0164
-0.00354347 0.0373868 0.0236099
0.000397944 0.0373696 0.0227141
-0.019475 -0.0231473 0.01376
-0.00224782 0.037314 0.0233468
-0.00445295 0.0375933 0.0236558
-0.00448387 0.0384546 0.022719
-0.00523101 0.0384692 0.0229195
-0.0010582 0.0381684 0.0223193
-0.00568271 0.0389477 0.0224874
0.00221705 0.0383136 0.0209384
0.000976269 0.038422 0.0212602
-0.00605195 0.0394564 0.0220848
-0.00823123 0.0392628 0.0235162
-0.00879685 0.0391676 0.0241891
-0.00712283 0.039698 0.0223567
-0.0129613 -0.012559 0.0295
-0.0031761 0.0396363 0.0213482
-0.00106149 0.0400339 0.0200888
-0.00755021 0.0409348 0.0213332
-0.00336141 0.0408186 0.0203582
-0.00523835 -0.0282215 0.0115
0.01112 -0.0101815 0.0235875
-0.00838688 -0.0273127 0.0129143
-0.00412037 -0.0275015 0.010975
-0.00651733 -0.02738 0.0121333
-0.00689894 -0.0272013 0.0125
-0.00040133 -0.0276113 0.0101
-0.00131694 -0.0273796 0.0102333
0.0112661 0.00501736 0.029225
-0.0113177 -0.0265179 0.01455
-0.0131834 -0.026558 0.0136571
0.0168719 0.00679561 0.0246571
-0.00100906 -0.0272003 0.0106
-0.00237831 -0.0271793 0.0107
-0.00312481 -0.0270532 0.0113
-0.00371958 -0.0269691 0.0117
-0.00668286 -0.0267379 0.0128
-0.00954661 -0.0262751 0.0145333
-0.0158889 -0.0264558 0.0134333
-0.0167655 -0.026428 0.0135667
0.00317631 -0.0273635 0.0076
0.00221189 -0.0271554 0.00935
0.00142313 -0.0267917 0.0111
0.000308216 -0.0264314 0.0118667
-0.00206346 -0.0267397 0.01135
-0.00766881 -0.0262253 0.013825
-0.00881707 -0.0261058 0.0144
-0.0211479 0.00944748 0.033325
-0.00937495 -0.0258649 0.01485
-0.0115714 -0.0259811 0.015
-0.0121797 -0.0258261 0.0148
-0.0140897 -0.0262859 0.0135333
-0.014995 -0.0263067 0.0134333
-0.013906 0.0176243 0.0341917
-0.0173838 -0.0263136 0.0134
-0.0178592 -0.0262059 0.0132
0.00627297 0.0020923 0.0321
0.00664803 -0.0273871 0.00570001
0.00600827 -0.0274472 0.005275
0.00235546 -0.0267347 0.0099
0.0014165 -0.0263648 0.0117
-0.000395614 -0.0263237 0.0119
-0.0122123 0.0309543 0.026175
-0.00130166 -0.0263443 0.0118
-0.0398003 0.00366451 0.0178
-0.00294336 -0.02618 0.0126
-0.00456826 -0.0260361 0.0133
0.0255812 -0.00140139 0.00822501
-0.00662602 -0.0257679 0.0138833
-0.00859635 -0.025651 0.0146
-0.0130921 -0.0256351 0.0145333
-0.0140414 -0.0258991 0.0139667
-0.0149357 -0.0257576 0.0139333
-0.0158291 -0.0256137 0.0139111
0.00218807 -0.0262557 0.01075
0.0211129 0.0131562 0.01915
-0.002187 -0.0258054 0.0129667
-0.00321924 -0.025687 0.01355
-0.0184856 -0.0254997 0.013
-0.01908 -0.0255199 0.012525
0.00771023 -0.0264116 0.00670001
0.00508372 -0.0267746 0.00665
0.0026475 -0.0259815 0.0106
0.00134442 -0.0253562 0.01282
-0.00217151 -0.0253256 0.0138667
-0.00143156 -0.0157041 0.0255444
-0.00305035 -0.0252252 0.0143667
-0.00392751 -0.0251582 0.0147
-0.00451057 -0.0251181 0.0149
-0.00775103 -0.0251181 0.0149
-0.028907 0.0164577 0.0277
-0.00779191 -0.0247929 0.015425
-0.00853194 -0.0248726 0.01554
-0.00949437 -0.0246435 0.016175
-0.0231428 -0.0140879 0.0248
-0.0129584 -0.0246757 0.0154625
-0.00761162 0.0382464 0.02165
-0.000388947 -0.0249955 0.0140333
-0.00121461 -0.024777 0.01454
-0.0383953 0.00985614 0.0195
-0.00215585 -0.02485 0.0147667
-0.00683296 -0.0246264 0.015525
-0.00854887 -0.0244298 0.01615
-0.0119778 -0.0243617 0.016125
-0.0149215 -0.0247945 0.014675
0.00584426 -0.0260387 0.0072
0.00246646 -0.0250779 0.0121
0.0023779 -0.0246413 0.0128
-0.00214495 -0.0244309 0.0154
-0.00417322 -0.0242805 0.0161667
-0.00592778 -0.0243001 0.0160667
-0.00767652 -0.0242936 0.0161
-0.00851999 -0.0241054 0.0165667
-0.00938406 -0.0241825 0.0166667
-0.00667133 -0.0223986 0.0184667
-0.0138893 -0.024444 0.0153333
-0.0186203 -0.0248819 0.0131
-0.0202529 -0.0247183 0.0119571
0.00832402 -0.0255024 0.00755001
0.00770616 -0.0255997 0.00745
0.00664998 -0.0252853 0.008275
0.00579648 -0.0255129 0.0083
-0.000239055 -0.0242343 0.0149
-0.000426399 -0.023747 0.0154714
-0.00126365 -0.0239685 0.0155167
-0.00230606 -0.0236873 0.01622
-0.00487915 -0.0238759 0.01675
-0.00508151 -0.0235864 0.017125
-0.00580109 -0.0235721 0.0172
-0.00852978 -0.023604 0.01726
-0.0104116 -0.0236513 0.0172714
-0.0139296 -0.0237496 0.016275
-0.015778 -0.0239263 0.0154833
-0.0211699 -0.0247947 0.011225
0.00736323 -0.0252602 0.008
0.00168648 -0.0240928 0.0141
0.00132628 -0.0238315 0.01454
-0.00414506 -0.0235379 0.017
-0.0121105 -0.0235378 0.017
-0.0269522 0.0103958 0.030275
-0.0149584 -0.0235939 0.0162
-0.0165191 -0.0236927 0.015425
-0.018589 -0.0239277 0.01372
0.00928417 -0.0251005 0.0072
0.00859353 -0.0247565 0.0082
-0.00125717 -0.0234057 0.0161667
0.0112354 -0.0201715 0.0117
-0.00226891 -0.0233143 0.01665
-0.00225685 -0.0228998 0.0173167
-0.00584959 -0.0231159 0.0177
-0.00672455 -0.0231537 0.0175
-0.0191254 0.0041342 0.0340333
-0.0130798 -0.00969907 0.0311429
-0.00758359 -0.0231348 0.0176
-0.0122055 -0.0231537 0.0175
-0.0130887 -0.0231852 0.0173333
-0.0147471 -0.0232955 0.01675
0.0139276 0.0140735 0.0264
0.00823918 -0.0244705 0.0089
0.00760841 -0.0244269 0.00913334
0.00497324 -0.023726 0.01192
0.00167442 -0.0233319 0.015
0.00137366 -0.0231286 0.0155667
0.021193 0.0247823 0.0188769
0.000785669 -0.0231639 0.0159
0.000491114 -0.0229208 0.016425
-0.0258435 -0.0130884 0.02388
-0.00130378 -0.0227333 0.01728
-0.00410798 -0.0227533 0.0181
-0.00496522 -0.0227346 0.0182
-0.00583212 -0.0227595 0.0180667
-0.00670275 -0.0227906 0.0179
0.0202583 0.0272441 0.01915
-0.00951506 -0.0226413 0.0187
-0.0360616 0.0184747 0.02065
-0.0121391 -0.0227408 0.0181667
-0.0148919 -0.0228212 0.01735
-0.0156331 -0.0227046 0.0172
-0.0159404 -0.023052 0.0165
-0.0166942 -0.0228952 0.0163
-0.016915 -0.0231919 0.01575
-0.0176145 -0.0229934 0.01556
-0.0191574 -0.0236119 0.0135
-0.0221515 -0.0239589 0.0111
0.00945422 -0.0238051 0.00916667
0.0120645 0.0131326 0.0278667
0.00580401 -0.0235222 0.01155
0.00337359 -0.0231537 0.0138333
-0.0257449 0.0167054 0.029775
0.00256362 -0.0230928 0.0147
0.00225458 -0.0228036 0.015475
-0.00394835 -0.0223741 0.0186
0.0168701 0.00238861 0.0238667
-0.00493197 -0.0221552 0.0190167
-0.00580821 -0.0223802 0.0185667
-0.00777574 -0.0221399 0.0191
-0.010338 -0.0222819 0.0191
-0.0121302 -0.0221247 0.0190714
-0.0131229 -0.0219903 0.01914
-0.012229 0.0375989 0.0228
-0.0139214 -0.0223034 0.0184667
-0.0163234 -0.0226874 0.0169
-0.0185823 -0.0229946 0.0147
-0.022605 -0.00365148 0.0313
0.00135478 -0.0221851 0.017275
-0.0013796 -0.022161 0.0182
-0.00236698 -0.0218597 0.019075
-0.00857717 -0.0218638 0.0198333
-0.00942624 -0.0218638 0.0198333
-0.0102922 -0.0219002 0.0196333
-0.0149918 -0.0221428 0.0183
0.0184308 0.0185829 0.02175
-0.0159294 -0.0222519 0.0177
-0.0192964 -0.0226312 0.0145333
-0.0202467 -0.0227613 0.013675
-0.0203972 -0.0230707 0.0132
-0.0211669 -0.0228897 0.01288
-0.0214441 -0.0232345 0.0123
-0.0221032 -0.0230941 0.0119667
0.0100761 -0.0235084 0.00910001
0.00312605 -0.022159 0.0158
-0.0112565 -0.0103455 0.0308917
0.000484449 -0.0218742 0.0182
-0.00263999 -0.0216227 0.0196
0.000966724 0.0283675 0.0287
-0.00517873 -0.0215689 0.0199
-0.00673552 -0.0215734 0.019875
-0.00943151 -0.0210537 0.02095
-0.00953049 -0.021497 0.0203
0.021066 0.00949539 0.020025
-0.0102466 -0.021521 0.0201667
-0.0113975 -0.0215629 0.0199333
0.00973582 0.00225637 0.0303
-0.012256 -0.0215808 0.0198333
-0.0149219 -0.0217544 0.0188667
-0.0167475 -0.0217127 0.0180333
-0.0212195 0.0213281 0.0309667
-0.0174226 -0.0218871 0.017325
-0.0178017 -0.0221435 0.0167
-0.0187418 -0.0222437 0.0156
0.0105263 -0.0230197 0.00925001
-0.0112611 -0.00584671 0.0332833
0.00968575 -0.0230052 0.0102
0.00575221 -0.0225621 0.0127
0.0049583 -0.0221632 0.0138333
0.00105445 -0.0215164 0.0186
0.0103767 -0.00313599 0.0281714
-0.011227 -0.00495211 0.0336062
0.000480843 -0.0212829 0.0191167
-0.0023458 -0.0212447 0.0201333
-0.00290409 -0.0211974 0.0204
-0.00322685 -0.0209303 0.02096
-0.00590167 -0.0210066 0.0208
-0.0079402 -0.0211088 0.0209
-0.00849881 -0.0211029 0.0209333
0.0240291 0.00663405 0.0147
-0.0103879 -0.0209965 0.0208571
0.0235879 0.00510135 0.0143
-0.0120871 -0.0209162 0.0208
-0.0123492 -0.0212151 0.0203
-0.00134832 0.0210021 0.0322
-0.0130685 -0.0212388 0.0201667
-0.0147893 -0.0209965 0.01994
-0.0150106 -0.0213924 0.0193
-0.0180627 -0.0218177 0.0169
-0.0194407 -0.0219196 0.0155
-0.0201832 -0.0222372 0.0145333
-0.0211836 -0.0222098 0.01385
-0.0240006 -0.00498603 0.0301
0.0112664 -0.0229111 0.0084
-0.0185203 0.0186631 0.0329286
0.00853305 -0.0218858 0.0128
0.0076935 -0.0220925 0.0128167
0.00679153 -0.022081 0.0128833
-0.0250975 0.0169255 0.0301
0.00308501 -0.0213385 0.0174333
-0.00776055 -0.0207234 0.0215
-0.0135949 -0.0208983 0.0205
-0.00678997 0.0148513 0.0344222
-0.0166044 -0.0210054 0.019075
-0.0175802 -0.0211992 0.0182333
-0.0179453 -0.021388 0.0177
-0.0190092 -0.0216153 0.0164
-0.0210578 -0.0218318 0.0146
0.011866 -0.0226094 0.00805
0.0110092 -0.0226009 0.009
-0.00139219 0.0303811 0.0316
0.00946347 -0.0220116 0.0118333
0.00488879 -0.0212671 0.0156
-0.000932635 -0.0206341 0.0204
0.00853723 -0.00839802 0.02702
-0.00235262 -0.0200303 0.0218286
-0.00314702 -0.0202451 0.02185
-0.00392258 -0.020254 0.02196
-0.00675722 -0.0203639 0.0219667
-0.00954358 -0.0202393 0.0218833
-0.0129559 -0.0204961 0.0212
-0.0139524 -0.0203822 0.02105
-0.015838 0.0277336 0.02755
-0.0148006 -0.0204037 0.02076
-0.0162489 -0.0207722 0.0196
-0.0195597 -0.0212897 0.0166
-0.0227881 0.0122387 0.03225
-0.0209739 -0.0215485 0.0151
-0.021683 -0.0216693 0.0144
-0.0227679 -0.0218591 0.0133
-0.0237127 -0.0219051 0.0130333
-0.0211335 0.00770394 0.0335556
0.0116573 -0.0221974 0.00865
-0.0121849 -0.000436329 0.0350667
0.00763073 -0.0213189 0.01385
0.00304056 -0.0202725 0.0192
0.00138104 -0.020301 0.02004
-0.00424376 -0.0200292 0.0223
-0.00493666 -0.0200292 0.0223
0.0031149 0.024823 0.02966
-0.00769519 -0.0199952 0.0225
-0.0130907 -0.0199977 0.0217857
-0.016751 -0.0204092 0.0200667
-0.0176074 -0.0202325 0.02
-0.00385885 0.00406103 0.0357
-0.0176959 -0.0205227 0.0194
0.00916506 -0.00641115 0.0278
-0.00402986 -0.0139026 0.0273125
-0.0183699 -0.0206418 0.0187
-0.020163 -0.0208715 0.01735
0.0120895 -0.0103171 0.022825
-0.0213284 -0.0208795 0.01645
-0.021977 -0.0212289 0.01525
-0.0238226 -0.0214359 0.0140333
0.0127081 -0.0219461 0.00736667
0.00501013 -0.0202859 0.0174
0.00399567 -0.0203559 0.018275
0.000474454 -0.0200149 0.0207333
-0.00299653 -0.019752 0.0223
-0.00767725 0.00949735 0.0358778
-0.00312236 -0.0193492 0.0227833
-0.00408666 -0.0195262 0.022825
-0.00499518 -0.0195446 0.02288
-0.00670387 -0.0196513 0.0229
-0.00943222 -0.0193183 0.0227714
-0.0117271 -0.019752 0.0223
-0.0140038 -0.0198359 0.0218
-0.0148723 -0.0198807 0.0215333
-0.0210381 -0.0205911 0.0173
0.0122862 -0.00860621 0.023575
-0.0239342 -0.0209771 0.015
0.01421 -0.022025 0.00496668
0.0121584 -0.0217996 0.00825001
-0.0254206 0.00607532 0.0313
0.0069616 -0.0206496 0.0152
0.0013125 -0.0193904 0.02112
0.000472731 -0.0196624 0.0211667
-0.0013361 -0.0195162 0.02205
-0.00229621 -0.0192763 0.0226667
-0.0050955 -0.019083 0.023425
-0.0112028 -0.0192717 0.0228143
-0.0130555 -0.0192517 0.0228167
-0.0183633 -0.0197561 0.0206
-0.0201517 -0.0199961 0.01915
-0.0218603 -0.0202608 0.01755
-0.0232485 -0.0204677 0.0163
-0.0246453 -0.0205393 0.0158667
0.00823178 0.00952213 0.0314
0.00956606 -0.0205841 0.0138
0.00875285 -0.020421 0.0148
0.00835751 -0.0201441 0.01542
-0.00124774 -0.0191033 0.02254
0.00501352 0.033046 0.0243143
-0.00338618 -0.0190509 0.0232
-0.00478186 -0.00794772 0.03205
-0.00833695 -0.0190509 0.0232
-0.0116375 -0.0190509 0.0232
-0.00766084 0.00409439 0.0361
-0.0148703 -0.0191407 0.02265
-0.0166871 -0.019027 0.0225
-0.0176805 -0.0191977 0.021875
-0.0194388 -0.0192861 0.0209
-0.0229039 -0.0200024 0.0173667
-0.0248765 -0.0200341 0.01646
0.0107739 -0.0206084 0.0118
0.0102262 -0.0200213 0.0136
0.00734323 -0.0199011 0.0162
0.00596304 -0.0196761 0.0176
0.00116792 -0.019033 0.0216
-0.00146373 -0.0188134 0.0229667
-0.00201269 -0.0187919 0.0231
0.00709716 0.0133889 0.03115
-0.00231245 -0.0184036 0.0236
-0.00306362 -0.0184563 0.0237
-0.0077492 -0.0185481 0.0237667
-0.0103639 -0.0185748 0.0236
-0.0121458 -0.0187116 0.0236
-0.014 -0.0186126 0.0234857
-0.0148341 -0.0185261 0.023475
-0.0150884 -0.0187919 0.0231
-0.0157857 -0.0188026 0.0230333
-0.0173942 -0.0189044 0.0224
-0.0233051 -0.0114149 0.02665
-0.0190781 -0.0190652 0.0214
-0.0201741 -0.0191778 0.0207
-0.0212754 -0.0191909 0.0200333
-0.0220727 -0.0193559 0.01915
0.00470445 0.00597472 0.0331
0.00610742 0.00137318 0.0320333
-0.0230158 -0.0194681 0.0183
-0.02444 -0.0197886 0.0169
0.0148077 -0.0211915 0.00448572
0.0126474 -0.0209085 0.008
0.0114753 -0.0204808 0.0107
0.00691832 -0.0193672 0.017275
0.00228973 -0.0186699 0.02125
0.00204995 -0.018375 0.02165
0.000745784 -0.0186592 0.0222
-0.000416372 -0.0184838 0.02296
-0.0347244 0.0147872 0.0227
-0.0014576 -0.0183242 0.02345
-0.011244 -0.0181723 0.0244167
-0.0129944 -0.0181571 0.02434
-0.0185413 -0.0186672 0.02215
-0.0203693 -0.0188176 0.0212
-0.0210081 -0.0188889 0.02075
-0.0218647 -0.0190235 0.0199
-0.0228961 -0.0190817 0.0189333
-0.0247905 -0.0192947 0.01746
-0.025692 -0.0192665 0.01715
-0.0176779 -0.00792735 0.0311667
-0.0265051 -0.0195251 0.0167333
0.01912 0.0202575 0.0206333
-0.0273831 -0.0194337 0.0167
0.0156802 -0.0210891 0.00416667
0.00957605 -0.019314 0.0156
-0.00336009 -0.0180853 0.0241
-0.00771805 -0.0180645 0.0242333
-0.00482491 0.00296399 0.0357
-0.00854563 -0.0180853 0.0241
-0.00473028 0.0317052 0.0303
-0.00949266 -0.0180697 0.0242
-0.0218943 -0.0182314 0.0207667
-0.0223176 -0.0186311 0.02
-0.017458 0.0292441 0.02605
-0.0235114 -0.018928 0.0187
-0.00557957 0.0299193 0.0305333
-0.0245491 -0.0190684 0.0178
0.000462999 -0.0174841 0.0235625
-0.00312987 -0.0174476 0.02453
-0.00406158 -0.0174875 0.0246091
-0.00578796 -0.0174541 0.0246667
-0.00850623 -0.0175948 0.0246333
-0.00937364 -0.0176722 0.02466
-0.0121658 -0.017519 0.0252571
-0.0166512 -0.0174166 0.0244
-0.0193328 -0.0180737 0.0224
-0.0210214 -0.018124 0.0214667
0.0120394 0.0112609 0.0281
-0.022932 -0.0182823 0.01994
-0.0241025 -0.0186577 0.0186
-0.0243184 0.0172077 0.0305
-0.0248009 -0.0185954 0.01826
-0.0257352 -0.0187103 0.0176333
-0.0279186 -0.018919 0.0169
-0.00857848 0.0408198 0.0198167
0.0171055 -0.0204754 0.00470001
0.0156833 -0.0204905 0.0046
0.00232368 -0.0177798 0.0219
0.00136236 -0.0176559 0.022875
-0.00150187 -0.0173489 0.02428
-0.00954162 -0.0172306 0.02525
-0.0184633 -0.0173995 0.0235167
0.0029161 -0.000397352 0.03221
-0.0245997 -0.0181264 0.0189667
-0.0255546 -0.0182575 0.01822
0.0103872 -0.0183168 0.0164
0.00647004 -0.0180413 0.0189
0.0050313 -0.0176212 0.0200625
0.00442214 -0.0178327 0.0203
0.00345738 -0.0176104 0.0211667
-0.00774703 0.0400746 0.0201714
-0.000630418 -0.0172567 0.0241667
-0.0104417 -0.0170208 0.02575
-0.0112878 -0.0167174 0.02617
-0.0120981 -0.0166012 0.0262571
-0.0222 -0.0176153 0.0211333
-0.026398 -0.0181902 0.0179
0.0172438 -0.0196329 0.0061
0.0101881 -0.0180273 0.01705
0.00764027 -0.0178245 0.0184333
0.0057862 -0.0172741 0.019775
0.000420615 -0.0165939 0.0244429
-0.000437954 -0.0167062 0.02458
-0.00144188 -0.0167676 0.0247167
-0.00311511 0.0203017 0.03255
-0.0204877 0.0141692 0.033
-0.00225433 -0.0167531 0.0248167
-0.0301058 -0.00493282 0.0253167
-0.00293155 -0.0168837 0.02485
-0.00762793 -0.0166417 0.0255833
-0.00852136 0.00409638 0.03605
-0.00949865 -0.0167493 0.0257667
-0.0103947 -0.0165428 0.0262625
-0.013023 -0.0165328 0.0262
-0.0138695 -0.0165397 0.0261
-0.0148875 -0.016759 0.0257
-0.0166112 -0.016498 0.0254125
-0.0169035 -0.016891 0.0248
-0.018392 -0.0165918 0.0244571
0.00578543 -0.0146675 0.0235
-0.0183867 -0.0170083 0.024
-0.0193003 -0.0170914 0.0234333
-0.0221128 -0.0172209 0.0216
-0.0237121 -0.0173243 0.0205667
-0.0257199 -0.0174481 0.01906
-0.0265428 -0.0177835 0.018225
-0.0273657 -0.0175909 0.0180714
0.00403439 0.021275 0.0308
-0.0317712 -0.00382019 0.02425
0.0122382 -0.0176401 0.01652
0.011208 -0.0174386 0.017375
-0.0182879 0.0140279 0.0340667
0.0100585 -0.0174047 0.0180333
0.00468829 -0.0172112 0.0207
0.00324511 -0.0170093 0.0221
0.00322948 -0.0166056 0.0226667
0.00128323 -0.016764 0.0238
-0.0114493 0.0240902 0.030275
-0.00853797 -0.016376 0.026025
-0.0094627 -0.0164178 0.0262
-0.0195016 -0.0166633 0.0238667
-0.0202774 -0.0165647 0.0236
-0.0211602 -0.0166792 0.02286
-0.021446 -0.0169948 0.0222
-0.0265439 -0.0172607 0.018875
-0.0290798 -0.017413 0.0173
0.0173493 -0.0187752 0.00770001
-0.034043 0.00780634 0.0246333
0.01295 -0.0173678 0.01555
0.011913 -0.0172861 0.017175
0.00643264 -0.0170864 0.0196
-0.00868233 -0.0023474 0.03469
0.00502916 -0.0168248 0.02095
0.00127799 -0.0164241 0.0242667
-0.00224883 -0.0163059 0.0251
-0.007589 -0.0161545 0.0261667
-0.00857103 -0.016044 0.026475
-0.010399 -0.015758 0.02709
-0.01125 -0.0157582 0.0270889
-0.0121282 -0.0157062 0.02708
-0.0123559 -0.0160788 0.0267
-0.0139691 -0.016093 0.0266
-0.0112781 0.0230997 0.0306833
0.0245382 -0.00099922 0.01005
-0.0158122 -0.0158002 0.0264667
-0.0230299 -0.0164824 0.0219
-0.0232869 -0.0168452 0.0213
-0.0239714 -0.0168142 0.021025
-0.0295608 -0.0173528 0.0167
0.0143629 -0.0178496 0.0121
0.00851106 -0.0167773 0.019275
0.00771814 -0.0168238 0.01945
0.00580714 -0.0164484 0.0208
0.00492757 -0.0163707 0.0217
-0.000488405 -0.0157137 0.025475
-0.00492712 -0.0159469 0.0257333
-0.00546216 -0.0159376 0.0258
-0.00587581 -0.0155749 0.0263091
-0.00676786 -0.0157134 0.02645
-0.0131099 -0.0156235 0.0271
-0.00045918 0.020344 0.032325
-0.0139116 -0.0156281 0.0270667
-0.017936 -0.0124101 0.0285
-0.0175894 -0.0159609 0.0256333
-0.0184322 -0.0158565 0.0254167
-0.0202638 -0.0161609 0.0242
-0.0225364 -0.0164261 0.0223
-0.0275285 -0.0166426 0.01912
-0.0278418 -0.0169564 0.0185
-0.0284528 -0.0168843 0.0183333
0.0160673 -0.0177679 0.0105
0.0138968 -0.0173426 0.0136
0.00419376 -0.0160872 0.02275
-0.00759479 -0.0154673 0.02688
-0.0277218 -0.0114284 0.0238
-0.0201063 -0.0155845 0.0251
-0.0212825 -0.0159362 0.02385
-0.0222839 -0.0160666 0.0229
-0.0254137 -0.0163959 0.0205
-0.0283087 -0.0164662 0.01895
-0.0295494 -0.016684 0.01735
0.0126952 -0.0166404 0.0166
0.00678 -0.0158651 0.0209667
-0.00344225 -0.0153863 0.0259
-0.00849737 -0.0151111 0.02745
0.0256752 -0.00232942 0.00750001
-0.0121309 -0.0151638 0.02755
-0.0178169 -0.000815831 0.0339
-0.0130634 -0.0151705 0.0275
-0.0140831 -0.0150868 0.0274667
-0.014961 -0.0149489 0.027425
-0.0163435 -0.0152649 0.0268
-0.0184565 -0.0153593 0.0261
-0.0239561 -0.0158017 0.0221333
-0.0256685 -0.0159839 0.02095
-0.0129881 0.0113705 0.0355625
-0.0265249 -0.0157227 0.0209833
-0.0300038 -0.0163846 0.0170667
0.012307 -0.00957428 0.02305
-0.030385 -0.0166809 0.0163
0.0156401 -0.0166691 0.0119167
0.0148168 -0.016486 0.01286
0.0104798 -0.0158062 0.0191714
0.00984304 -0.0159656 0.0195
0.00872808 -0.0158023 0.0202
0.00652543 -0.0154554 0.021775
0.00588529 -0.0156277 0.02205
0.00544763 -0.0155681 0.0225
0.00472167 -0.0154555 0.02335
-0.000485388 -0.0148113 0.0261917
-0.0149004 -0.00131184 0.0342083
0.0241849 -0.00412959 0.0078
-0.00142236 -0.0148002 0.0262778
-0.00222575 -0.0148002 0.0262778
-0.00316045 -0.0147886 0.0263667
-0.00405411 -0.0148474 0.0265
-0.00488967 -0.0150249 0.0266
-0.0292767 0.0204982 0.0255667
-0.0059269 -0.0146817 0.0271889
-0.0103742 -0.0147164 0.0279333
-0.0130248 -0.0147295 0.0278333
-0.0138694 -0.0146942 0.0277667
-0.0186 -0.014978 0.02645
-0.0193944 -0.0148699 0.0263286
-0.0203558 -0.0150901 0.0256
-0.0238545 -0.0154584 0.0226333
-0.0273454 -0.0156237 0.0206667
0.0267864 0.00416726 0.01116
-0.0286413 -0.0158434 0.01935
-0.0355505 0.0149058 0.02165
-0.0290889 -0.0157645 0.0188667
-0.0277214 0.0206244 0.0266
0.0174498 -0.0164109 0.0111
0.0122952 -0.0156139 0.01826
0.00199652 -0.0146314 0.026025
-0.0355059 0.0185447 0.0211
0.00125627 -0.0146738 0.0262167
-0.0183999 -0.014554 0.02694
-0.0201284 -0.0146492 0.0262
0.00950587 -0.0113084 0.0236286
-0.0214965 -0.0149791 0.0249
-0.0238189 -0.0147979 0.0234833
-0.02378 -0.0152263 0.023
-0.024435 -0.0152914 0.0225
0.0144921 -0.016152 0.0136
-0.0166231 -0.0115312 0.029375
0.0130834 -0.0155662 0.01705
0.007708 -0.0147817 0.0217833
0.0047609 -0.0146087 0.0244
0.00379502 -0.0145064 0.0250667
-0.00771364 -0.0140178 0.0282444
-0.00944248 -0.014216 0.02834
-0.0112507 -0.0141295 0.0284
-0.021837 -0.00467535 0.0313
-0.0131035 -0.014078 0.0282875
-0.0140185 -0.0139629 0.0281583
-0.022893 -0.0145741 0.02435
-0.024776 -0.0147863 0.02285
-0.0265495 -0.0148949 0.0218857
-0.0130456 0.00141654 0.0351
-0.0275727 -0.0149647 0.02114
-0.0279229 -0.0152575 0.0206
-0.0300987 -0.0154398 0.01805
0.00139384 0.0240402 0.03015
0.00854309 -0.0103163 0.0255143
0.0181457 -0.016193 0.0109
0.0166073 -0.0158167 0.01198
0.0212077 -0.000267073 0.0183333
0.0282995 -0.00447617 0.00675
0.0161447 -0.0160174 0.0123
0.0128595 -0.0153275 0.0178
0.0097777 -0.015014 0.0203
-0.000483539 -0.0142206 0.026625
-0.000422795 -0.00312163 0.0327182
-0.00115031 -0.0142112 0.0267
-0.00144602 -0.0138684 0.02705
-0.00490473 -0.0140605 0.02748
0.0249098 0.00944594 0.0136
-0.0376687 0.00134779 0.0191
-0.00588376 -0.0137835 0.0280111
-0.0120749 -0.013767 0.028675
-0.0167574 -0.0140983 0.0276
-0.0203365 -0.0140479 0.0265833
-0.0362611 0.00767828 0.0224333
-0.0211462 -0.0139012 0.0262375
-0.0272091 -0.0146568 0.0216667
-0.0284054 -0.0146267 0.0207
0.0143659 -0.0154213 0.0147
0.0131903 -0.015089 0.0174
0.00842409 -0.0145844 0.0215
0.00739703 -0.014486 0.0223
-0.0176966 0.0340269 0.0213
0.00581838 -0.0138767 0.0243
0.00396139 -0.0138255 0.0254778
0.000396545 -0.0137649 0.02686
-0.0268752 0.0179239 0.02845
-0.0282624 0.00681409 0.0297
-0.0112104 -0.013686 0.0288
-0.013061 -0.0136389 0.02865
-0.0229006 -0.0137529 0.0253333
-0.0237855 -0.0139396 0.0245333
-0.0241646 -0.0143013 0.0238
-0.0264167 -0.014486 0.0223
-0.0301266 -0.0147144 0.0189
-0.0112516 0.0122152 0.0357
-0.0310909 -0.0147161 0.0181
0.0150635 -0.0152349 0.0138
-0.0166247 0.00499758 0.0351167
0.0127648 -0.0146434 0.0187
0.0100344 -0.014414 0.0206
0.00857422 -0.0140214 0.0218375
0.00707753 -0.0141243 0.023
-0.0076845 -0.0134402 0.0286667
-0.0183238 -0.0135529 0.0277333
-0.0211313 -0.00756112 0.02991
-0.0255535 -0.0137081 0.0235286
-0.0265805 -0.0138727 0.0228
0.0169098 -0.0149765 0.0122
0.0165372 -0.0147626 0.01275
0.014962 -0.01469 0.01465
0.0103023 -0.0138339 0.0207556
0.00240851 -0.0132408 0.0266333
0.00044832 -0.0130786 0.0272667
-0.00043599 -0.0131501 0.0274111
-0.00220112 -0.0133122 0.0275333
-0.00765456 -0.012866 0.0291
-0.0157887 -0.0131088 0.0283
-0.0202644 -0.0130824 0.0272333
-0.0211729 -0.0133297 0.0266333
-0.0292066 -0.0137448 0.0207167
-0.030423 -0.0141999 0.0192333
0.0139065 -0.0140728 0.01745
0.00921468 -0.0135613 0.0215
0.00821454 -0.0136313 0.0225
0.0194967 -0.014163 0.01
0.00746856 -0.0135327 0.02335
0.00671097 -0.0130746 0.0245667
0.00595409 -0.0133024 0.02475
0.00494125 -0.0130384 0.0255
0.00422265 -0.01326 0.0257
0.00396851 -0.0128822 0.0261333
0.00315859 -0.0129378 0.0264625
-0.00219431 -0.0128749 0.0278833
-0.00500976 -0.0127046 0.02868
-0.00584055 -0.0127658 0.0288333
-0.00872896 -0.0126184 0.02955
-0.0148242 -0.0127541 0.0287714
-0.023761 -0.0129899 0.0253714
-0.0242279 -0.0132289 0.0248
-0.0248137 -0.0129351 0.0246
-0.0261698 -0.0135269 0.0234
-0.0327402 -0.0137684 0.0180167
0.0152146 -0.014207 0.015
0.0147374 -0.0137418 0.0165333
0.0136779 -0.0138433 0.0182
-0.0282357 0.00519777 0.02955
0.00879777 -0.0134 0.0221
0.0085206 -0.0130521 0.0227333
0.0147681 0.0140394 0.0255875
0.00767226 -0.0130321 0.0237333
0.00581016 -0.0128879 0.02518
-0.0231487 0.0277812 0.02375
-0.0121697 -0.0125476 0.0296
-0.0158213 -0.0126613 0.0286
-0.0163459 -0.0126613 0.0286
-0.0275163 -0.0131441 0.0227333
-0.0284373 -0.0129983 0.0219667
0.00542714 -0.00820172 0.0286
0.02031 -0.0146138 0.0087
0.0199095 -0.0145471 0.00930001
0.017858 -0.0141203 0.0122333
-0.0337783 0.00410538 0.0245273
0.0175423 -0.0138129 0.012525
0.0136105 -0.0134897 0.0188
-0.0222254 -0.00779794 0.0293667
0.0132591 -0.0134229 0.0194
0.00815162 -0.0128407 0.0234
-0.00672533 -0.0123155 0.02935
-0.00945231 -0.0119519 0.03006
-0.0103494 -0.0120099 0.0299818
-0.0138826 -0.0119223 0.029675
-0.0141493 -0.0122268 0.0293667
-0.0157583 -0.0120885 0.0290444
-0.0175438 -0.0121187 0.0287667
-0.019342 -0.0120956 0.0281
-0.0203928 -0.0124332 0.0275
-0.0256329 -0.012676 0.024275
-0.0291077 -0.0128404 0.0215
-0.0294092 -0.0131478 0.0210333
-0.0304143 -0.0130519 0.0202
-0.030947 -0.0130273 0.019775
0.0207135 -0.01437 0.0081
0.02031 -0.0143047 0.0087
0.0154469 -0.0135638 0.0155
0.00830334 -0.0108945 0.0251
0.00529463 -0.0124417 0.0258
0.0150188 -0.00490955 0.0237333
0.0033853 -0.0123436 0.0267
0.00127117 -0.011854 0.0278625
-0.0032252 -0.0119894 0.02875
-0.0067071 -0.0118924 0.02965
-0.0224944 -0.0123436 0.0267
-0.0193747 -0.00492969 0.0319
-0.0246787 -0.0119793 0.0253667
-0.0328649 -0.0130224 0.0182143
0.0212253 -0.0137365 0.00762001
0.020724 -0.0137555 0.00803333
0.019102 -0.0137929 0.0106
0.0162007 -0.0134092 0.0142
0.00873061 -0.0124712 0.023
0.00863111 -0.0120784 0.0236
0.00373443 -0.011878 0.0269
0.0101363 -0.00921059 0.02518
-0.00165567 -0.0118743 0.0286
-0.0147762 -0.0117731 0.02955
-0.0269543 0.00484099 0.0302667
-0.02502 -0.0122687 0.0249
-0.0264931 -0.0120516 0.0243857
-0.0269009 -0.0123859 0.0238
0.0144189 -0.0125918 0.0192
0.0201877 0.0239135 0.0187222
0.0116526 -0.0123729 0.0213
0.00729434 -0.0117692 0.0253667
0.00216541 -0.0117058 0.0277
-0.000544962 -0.0111312 0.0287692
-0.00138995 -0.011192 0.0288667
-0.00230222 -0.0111749 0.0290375
-0.00420769 -0.0111801 0.0297
-0.00586393 -0.0112902 0.0300333
0.00131451 -0.000447267 0.032425
-0.00946621 -0.0114348 0.0303
0.00486009 -0.00838062 0.0287143
-0.0112948 -0.0111026 0.03052
-0.0123509 -0.0114348 0.0303
-0.0139729 -0.0112447 0.03014
-0.014859 -0.0112175 0.0299
-0.0157557 -0.0112114 0.0297273
-0.0183882 -0.0111844 0.0289417
-0.0194513 -0.0112185 0.0284143
0.00681588 0.0112931 0.0319182
-0.0211058 -0.0117058 0.0277
-0.0301624 -0.0121686 0.0209571
0.0201636 -0.0131001 0.00915
0.0103635 -0.0117687 0.02245
0.00704261 -0.0115004 0.0258
0.00669806 -0.0111356 0.026325
0.00228961 -0.0111374 0.0281
0.00141736 -0.01117 0.0283
-0.00768512 -0.0110248 0.030525
-0.0103897 -0.0110222 0.03055
-0.019113 -0.0109746 0.02868
-0.0211793 -0.0111462 0.0280111
-0.0228738 -0.0112002 0.0270857
-0.0239084 -0.0111807 0.02632
-0.0242866 -0.0116349 0.0258
-0.0139858 -0.00664147 0.0326222
-0.0271044 -0.0118081 0.0241
-0.0307345 -0.0120243 0.0206
-0.0321418 -0.0120866 0.019275
-0.0329746 -0.0121841 0.0183
-0.0337523 -0.0121223 0.0173714
0.0212623 -0.0128674 0.00758334
0.00861355 -0.0112166 0.0245714
0.00804675 -0.0114556 0.0249
0.00773248 -0.0111222 0.0255429
0.00492061 -0.011089 0.02698
-0.00320353 -0.0108676 0.0295
-0.013759 -0.0109082 0.0304
-0.0257087 -0.0111308 0.0254556
-0.0264377 -0.0111111 0.0251
-0.0273302 -0.0112429 0.0243
-0.0326115 -0.0119151 0.01885
-0.0240705 0.0220778 0.0283
-0.0121773 0.0291788 0.0279333
0.0189544 -0.0124769 0.0116
-0.0167294 -0.00676152 0.03205
0.0183209 -0.012206 0.01285
0.012234 -0.0112829 0.0219833
0.0104572 -0.0113052 0.02295
0.00564568 -0.010995 0.02685
0.00361987 -0.0109124 0.0277
0.00109876 -0.010825 0.0286
-0.00321725 -0.0102807 0.0298364
-0.0219085 0.0210513 0.030625
-0.00400873 -0.0104189 0.0301182
-0.00473028 -0.0106598 0.0303
-0.0058613 -0.0103465 0.0308833
-0.00945296 -0.0103401 0.03095
-0.0103586 -0.0103469 0.0308778
-0.0121536 -0.0103437 0.0309111
-0.013062 -0.0103511 0.0308333
-0.0139846 -0.010368 0.0306556
-0.0148095 -0.010663 0.0302667
-0.0166816 -0.0104566 0.0300625
-0.0247139 -0.0108764 0.026
-0.0304275 -0.0113993 0.02125
-0.030964 -0.0113022 0.0208
0.0228616 -0.0125775 0.00735
0.0207292 -0.0123605 0.008
0.0103349 -0.0109044 0.02355
0.00685547 0.024926 0.027225
0.00663451 -0.0102135 0.027025
0.0159449 0.00774086 0.0256
0.00586638 -0.0103104 0.0273
0.00499199 -0.0104846 0.0274286
0.00311299 -0.0104061 0.0282714
0.00241369 -0.0105768 0.02845
0.00223864 -0.0102111 0.0287571
-0.000472474 -0.0102435 0.0292167
-0.0254045 0.0255191 0.025
-0.00234176 -0.0101524 0.02964
-0.018604 -0.0103554 0.0292143
-0.0194338 -0.0102687 0.0289444
-0.0202123 -0.0102098 0.0287714
-0.0229907 -0.0104075 0.0274429
-0.023697 -0.010208 0.0270444
-0.0329918 -0.0115203 0.0185
0.0109067 -0.0107904 0.0233
0.00885987 -0.0106424 0.0249
-0.0165222 -0.00993358 0.030475
-0.0182873 -0.0100825 0.02955
-0.0227163 -0.0101101 0.0278
-0.0247248 -0.0102688 0.0264125
-0.0265529 -0.0103558 0.02545
-0.0339458 -0.0111374 0.0174667
0.018347 -0.0113806 0.0137
0.0177805 -0.011304 0.01455
-0.00486747 -0.0096434 0.0310833
-0.00584843 -0.0093598 0.0316
-0.011235 -0.00981274 0.0311
-0.0121325 -0.00981274 0.0311
-0.0293824 -0.0102832 0.0228167
-0.0302683 -0.0104124 0.02198
-0.0316045 -0.0107679 0.0205
0.0168177 -0.0108638 0.0162
0.0144356 -0.0101282 0.0214
0.00560321 -0.00985466 0.0277
0.0048921 -0.00933388 0.02824
0.00229502 -0.00941776 0.02911
0.000505128 -0.00964476 0.02935
-0.0013777 -0.00940737 0.0298444
-0.0183696 -0.00129034 0.0334125
-0.00222912 -0.00943982 0.03007
-0.0148819 -0.00935475 0.03106
-0.0267271 -0.00405344 0.0282857
-0.0157307 -0.00930487 0.0310444
-0.0194322 -0.00964695 0.029325
-0.0211982 -0.00939464 0.0289
-0.022222 -0.00950421 0.0283667
-0.0261461 -0.0100126 0.0259
-0.0271411 -0.0100828 0.0251
-0.0317656 -0.0101965 0.0206
-0.0337903 -0.0104017 0.0182
0.00504049 -0.00873812 0.02845
0.0230219 -0.0109767 0.006875
0.0163685 -0.0102188 0.0181
-0.00312631 0.0394486 0.0226333
0.0154667 -0.0101151 0.0199
0.00844649 -0.00940358 0.0263625
0.00783664 -0.00959237 0.0266333
0.00684242 -0.0093808 0.0274375
0.00585616 -0.0093073 0.027925
0.003982 -0.00915816 0.0286667
-0.00567588 0.0326879 0.0269
0.000387208 -0.00927705 0.02954
-0.0138406 -0.00912256 0.03138
-0.0192495 -0.00926372 0.0297
-0.0229947 -0.00926809 0.028
0.00611929 0.0205973 0.0303
-0.0233744 -0.00959875 0.0276
-0.0267244 -0.00948989 0.025725
-0.0276069 -0.00969796 0.02485
0.024546 -0.0108849 0.0064
0.0173568 -0.0100049 0.0172
0.00760732 0.0284439 0.0254
0.0138662 -0.0094404 0.02197
0.012904 -0.00947035 0.0226333
0.0119144 -0.00936689 0.0234286
0.0159571 0.0094992 0.0255125
0.00924912 -0.00920253 0.02595
-0.00253222 -0.00910155 0.0304
-0.0044312 -0.00902681 0.0313
