ply
format ascii 1.0
comment Created by Open3D
element vertex 1532
property double x
property double y
property double z
end_header
-0.0377819 0.0314688 0.00988316
-0.0126027 0.0276544 0.0329683
0.00858436 -0.0174242 0.0200315
0.0346231 -0.000285581 0.0306944
-0.0379497 -0.0105981 0.00568704
0.0225519 0.0130683 0.0280456
-0.00850029 0.0315765 0.0304265
-0.0172929 0.0353498 0.0262653
0.0190442 0.0148395 0.0201047
-0.0103859 0.0321811 0.025625
0.0173604 0.0014786 0.0262466
0.0366 0.00590085 0.0235724
0.0169075 0.0265019 0.0189
0.0244635 0.0203245 -0.0311441
0.0337289 -0.0132921 -0.00557976
0.0128174 0.0203194 0.0255238
-0.0114078 -0.022005 0.0191572
-0.00335904 -0.0158471 0.0264233
0.0493166 0.0158972 0.0236189
0.019209 0.0191386 -0.0169291
0.0356 0.016763 0.0226695
0.0300689 -0.00915937 -0.0112509
0.0351625 -0.00315156 0.0172345
-0.00875417 0.0296264 0.0284
0.006745 -0.0246403 0.00293728
0.00835194 -0.0204376 0.025334
0.0335167 0.0031931 0.00647194
0.00507739 0.00849546 0.0358473
-0.0121048 0.0286409 0.0284
0.0247548 0.010231 0.0227568
0.0231939 -0.00570611 0.0119381
-0.0143705 0.0103538 0.0398894
-0.00705504 -0.0272398 0.0126627
-0.0103472 0.00592641 0.03615
0.0483536 0.00149228 0.00383096
0.00854553 0.0113598 0.0310385
0.00824684 0.0238925 0.0280392
0.000945695 -0.00668737 0.0442953
-0.010669 0.0200991 0.0376831
-0.0305824 0.0222284 0.0228347
-0.0346844 -0.0102389 0.017575
-0.0242702 0.00330068 0.0377415
-0.00181112 0.00947362 0.0481036
0.00726765 -0.022779 0.00454541
-0.0115155 -0.000494727 0.0346802
-0.00812028 -0.0213355 0.0254728
0.0194142 0.00241827 -0.00608638
0.026312 0.0218097 -0.0308026
-0.0123611 -0.00467732 0.0384676
0.00139384 0.0240402 0.03015
-0.00600901 -0.0182908 0.0245558
-0.0348937 0.0248869 0.01885
-0.012199 0.00764949 0.036
0.0097908 -0.0214548 -0.00519083
0.0220542 0.00954263 0.029826
0.019971 0.0222016 -0.0161093
-0.0337481 -0.00778475 0.0202167
-0.00496372 0.0283919 0.0308026
0.017675 0.0215414 0.0202667
0.0201862 0.00226943 -0.00416357
-0.0358803 0.0151659 0.02125
0.00221269 -0.00312362 0.0318556
-0.00699878 -0.026621 0.0135551
0.00999266 -0.0018029 -0.0182922
-0.0139806 -0.004815 0.0333636
0.00290403 -0.0273604 0.00839138
0.00502489 -0.023718 0.0100796
0.00652296 0.0266151 0.0278
-0.0415395 0.00681684 0.00920659
0.0205918 0.00109139 -0.00386597
0.02375 0.033804 0.0118564
0.0357667 0.0209763 -0.0102502
-0.0039742 0.0131134 0.0346857
0.016625 -0.00763069 -0.00768142
-0.00970318 0.0102914 0.0359153
-0.0202987 0.0219883 0.0306072
0.00207943 0.0210431 0.0349801
0.00503212 -0.0238117 0.0208841
0.0158766 -0.0166026 0.0173543
0.0243868 -0.00489211 0.00794333
0.0292542 0.025645 0.00458484
-0.00990845 -0.0131569 0.0337106
-0.00163908 -0.0248685 0.0154728
0.0109479 0.0293481 0.0243167
0.0489739 0.00684201 0.0263252
0.0136192 0.0181992 0.0259
-0.00106816 -0.0146444 0.0305523
0.0247964 0.00416506 0.0208572
0.0319418 0.00525704 0.00273643
0.0171553 0.0123597 0.0237868
0.01816 0.00661609 -0.0190461
-0.0337213 -0.0146314 0.00997585
0.0248267 0.0102625 0.0109081
-0.0246999 -0.0230156 0.011
-0.0214493 -0.00784081 0.0293702
0.00226544 0.0254601 0.0414761
0.0127626 0.0270226 0.0344945
-0.0188589 0.0148941 0.0386241
0.0192833 -0.0126781 -0.00228071
-0.0162415 0.00688933 0.0397649
0.0193937 0.0257791 0.00827579
-0.0185611 0.00587561 0.0392027
0.0281205 0.0117775 -0.0327023
0.00726425 -0.0148031 0.036268
-0.0105373 0.0370577 0.0232
-0.0123347 -0.0238623 0.0164725
-0.0347175 -0.00742589 0.0171949
-0.0124645 0.00854737 0.0355083
0.049647 0.0013353 0.0226911
0.0261 -0.00033938 -0.00326935
-0.0350499 -0.00768727 0.0164193
0.0497993 0.00404136 0.00657486
0.00581736 -0.00675093 0.0291667
-0.010902 -0.0126378 0.0340071
0.0190113 0.00647953 -0.00612853
-0.0263151 -0.0222883 0.00501425
0.00911812 -0.00318028 -0.0171403
0.0213692 0.00405674 0.03075
0.036075 0.0113149 0.0136582
0.0148166 0.0229374 0.0343258
0.0497868 -0.00130262 0.0163333
-0.017958 0.0257322 0.034178
-0.0276519 -0.00661362 0.0262489
-0.0171554 0.0246901 0.0351234
0.0145163 -0.00681997 0.0228453
0.0238187 -0.0185325 -0.00474483
0.0103399 0.00772813 0.0301571
0.0238 0.00389502 -0.00538736
0.0261129 0.0283931 -0.00883786
-0.0148074 0.0267079 0.0283333
0.0221211 0.00303931 -0.00163988
-0.00242691 0.00138245 0.0347486
0.0068199 -0.0130332 0.0272745
-0.00248366 -0.0257817 0.0130833
0.0126952 -0.0166404 0.0166
0.0103288 0.0219444 0.0388267
0.0073 0.0296031 -0.00927718
0.012234 -0.0203298 0.01378
-0.0114164 -0.00918578 0.0313486
0.0163837 0.0302222 0.0146226
-0.0350266 0.0197715 0.0213
0.0263665 -0.00122887 0.00726667
0.0048921 -0.00933388 0.02824
0.00680551 0.00145405 0.0344366
0.0209616 0.0138631 0.0192
0.0011309 0.00408485 0.0350053
0.00623909 -0.0195157 0.0298936
-0.00252329 -0.0164741 0.0261598
0.0108741 -0.0113187 0.0270339
0.019098 -0.000285402 0.020625
0.0138043 0.0292449 0.0263402
0.0182709 0.00997707 -0.0324639
-0.0135448 -0.0246504 0.0216477
-0.0286434 0.0085754 0.0291369
-0.0174547 0.0390801 0.0160572
0.0170995 -0.00925107 -0.00253719
0.0271932 0.00996909 -0.0328913
0.00814914 0.00592189 0.044652
0.0507508 0.00763588 0.015528
-0.0293612 -0.0136846 0.0171312
0.0226164 -0.00670278 0.0109672
-0.0221128 -0.0172209 0.0216
0.00759667 0.0344873 -0.00614532
0.0219684 -0.0127809 0.00740001
0.0130884 0.00677841 0.0281444
0.01934 -0.0165555 0.00108217
-0.000763208 -0.0164837 0.0259731
-0.0121524 -0.00115443 0.03492
-0.0328909 0.0265612 0.0154782
0.0486164 -0.00398747 0.0110061
0.0262208 0.0239631 -0.0134128
0.00910088 0.00063428 -0.0186575
0.024169 -0.000381046 0.0083381
-0.00726109 -0.00480262 0.0377042
0.0232894 0.0175395 0.00566866
0.01568 -0.0183163 0.000207824
0.010874 0.0320128 0.020577
-0.0264847 -0.0154003 0.0189459
0.0231899 0.0039005 0.01485
0.00735216 0.0130688 0.0440879
-0.0141905 0.0205217 0.0329311
0.0244533 0.0131606 0.00829017
0.0114121 0.0290812 0.02375
-0.0261631 0.0239982 0.0255582
0.0288878 -0.00422179 -0.0308664
-0.0186061 -0.0190576 0.0207921
0.0317895 0.0303885 -0.00447228
0.016839 -0.0113431 0.010279
0.00921702 -0.0219001 0.00463571
0.0253562 0.00841941 0.0135137
0.018625 0.0121426 -0.0124872
-0.00786494 0.00142249 0.0353684
0.0253239 0.00951354 0.0191378
0.0253684 0.00470025 -0.03311
0.0248309 0.00704223 0.014
0.0198803 0.0149116 -0.018333
0.0222158 -0.00844936 0.00840001
0.0362912 0.0240575 -0.00722185
0.0356227 0.0142355 0.0264879
0.00856495 0.0167844 0.0326184
-0.0096265 0.00228489 0.0356041
0.0211746 -0.00841398 0.00655773
0.0279179 0.0167108 -0.0157337
0.0261864 -0.00585833 -0.0144771
-0.00141859 0.0185163 0.0368834
-0.0240678 0.00313398 0.0318829
0.0269508 -0.00915137 -0.0129199
0.015825 -0.00852242 0.0201838
0.022943 0.00328132 0.00021149
0.0156026 0.000576378 0.0261525
-0.0178658 0.0176563 0.0329025
0.0117075 0.0354723 0.0235554
-0.0243167 0.0349417 0.0165604
-1.23252e-05 0.0167118 0.0463213
0.00681304 -0.0173996 -0.00708386
0.0347 0.0140577 0.0100127
-0.0172554 0.0237383 0.0358508
0.0380557 0.0131405 -0.0296725
0.00448976 0.0329898 0.023735
0.0153597 -0.00217106 0.0253952
0.00411601 0.0275712 0.027334
0.0100102 0.027485 0.0241333
-0.0365433 0.0183408 0.0203
-0.0229057 -0.00218648 0.0368094
0.03553 -0.000286874 0.0146402
-0.000488405 -0.0157137 0.025475
0.016315 0.0276152 0.0166603
0.0212078 0.00363854 -0.018267
0.0212586 0.004988 -0.0185541
0.00687231 -0.00519743 0.0292667
0.00767831 0.0158256 0.0335029
0.0247854 -0.0130638 -0.0107384
0.0369917 0.0076978 0.0217853
0.0221944 0.0193081 -0.0137377
-0.0202074 -0.0030625 0.03221
0.0223648 0.00416716 0.0100662
-0.0340419 0.00500924 0.0235394
-0.00698578 0.0122749 0.0354632
0.0340188 0.00405156 0.00743971
-0.00983162 -0.0230013 0.0183013
-0.00137467 -0.00478081 0.045841
-0.00431535 -0.000500643 0.0344672
-0.0352868 -0.0141846 0.00560794
-0.000483539 -0.0142206 0.026625
-0.000472474 -0.0102435 0.0292167
-0.0124124 0.0243639 0.0356874
0.0100533 -0.000198934 0.02965
0.0113948 0.00147547 0.0417304
0.0164523 0.0175638 -0.0309807
0.0112965 -0.0120144 0.0217375
0.00472114 0.0131227 0.0454478
-0.0273937 0.0194019 0.027807
0.018347 -0.0113806 0.0137
0.0243223 0.00234953 0.0217726
-0.00497908 0.00410227 0.0359
0.0216718 -0.00392024 0.0055877
0.0270965 0.0248561 -0.0125532
0.0102332 0.000565921 0.0315583
0.0340933 -0.0021612 0.0101529
0.00386087 -0.0140618 0.0267087
0.00197953 0.00946936 0.0374626
-0.00411462 0.0352852 0.0258737
-0.0304362 -0.00210212 0.0260786
0.0211182 0.0248475 0.0146222
-0.0266084 -0.00286159 0.0287171
0.0162967 -0.0148975 0.012875
-0.0132589 0.0176129 0.0342656
0.0190976 0.0149971 0.0210126
0.02471 0.0131357 -0.0051628
0.0301808 -0.00169617 0.00320001
0.0101554 -0.00858556 0.02558
0.050305 0.0021988 0.0119307
0.0332 0.0212854 0.0262841
0.0384281 0.0247789 -0.00442845
-0.0285729 -0.00759921 0.0245163
0.00043828 -0.00850353 0.0297917
0.0122739 0.0241096 0.0247278
-0.0222691 -0.0111719 0.027166
-0.0219189 0.00680985 0.0332818
-0.00537462 0.0167204 0.0383503
0.0105055 0.0211035 0.0294994
-0.013841 0.00234505 0.0349555
0.0388235 0.00561222 -0.0301876
0.050486 0.00313693 0.0118443
0.00224432 -0.0266292 0.00378319
0.0333741 0.00495097 -0.0143778
0.0246186 0.00322256 0.0208867
0.0320062 0.00768886 0.00281276
-0.0232037 -0.0190048 0.0188167
-0.0232946 -0.0176055 0.0192289
0.0255125 0.00776347 -0.00508988
-0.00220841 -0.0236074 0.018711
0.0232725 0.00327136 0.00291312
-0.00618915 0.0365428 0.0222
0.0200391 0.0114256 0.0247524
0.00121051 0.016665 0.0367904
-0.00566386 0.0406081 0.0213988
-0.00691175 0.0213834 0.0320375
-0.0421554 0.00945892 0.00660752
-0.00286236 -0.0193747 0.0355577
-0.00589889 -0.0194261 0.027539
0.0186878 -0.0109886 0.00213169
0.0473187 0.0185551 0.00473172
0.0201062 0.0192825 -0.00769414
0.0390787 0.0346864 0.00838631
0.0308816 0.000743753 -0.01479
-0.0379199 -0.00957083 0.00743636
0.0138149 -0.0156677 0.0107879
0.0156264 0.00964341 0.0261491
0.0189544 -0.0124769 0.0116
0.00996211 0.0221727 0.0273825
-0.00170211 0.039373 0.0210283
0.0130564 0.0258896 0.0229167
0.0121833 -0.0148553 0.0191279
0.0386935 0.0347042 0.00741909
-0.0177712 0.0353804 0.0260187
-0.0326263 -0.015754 0.0144
0.0250988 0.00592272 0.0200275
-0.0320177 0.0300732 0.0144667
0.0341364 -0.00582256 0.0226724
0.0182786 -0.00910535 -0.00607386
-0.00936087 0.0389856 0.0206667
-0.00338514 -0.00911995 0.0314395
0.0161 0.00969636 -0.0130384
-0.0180091 0.0158145 0.0382028
0.00601862 -0.0175446 0.019375
0.00582329 -0.0193455 0.0190318
0.0258057 0.0133265 0.0106
0.0235189 0.00681449 0.01545
0.0367 0.00504376 0.0226982
-0.0152693 -0.024973 0.0141051
-0.00516426 -0.00751202 0.0327249
0.031559 0.00727018 0.0042
0.0102302 0.0237183 0.0280995
0.0113307 -0.00548832 0.0285611
0.0194703 0.0122635 0.0201502
0.0181514 0.0227009 0.0196
-0.000911329 0.0187792 0.033653
-0.0332045 -0.00749797 0.0207562
0.019415 -0.0075688 0.0281222
0.0274188 -0.00311928 -0.000646795
0.00668256 0.0244993 0.0287766
0.00272175 0.00141086 0.0463358
0.0189875 0.00320144 -0.00974271
0.00640486 -0.0229463 0.00290646
0.0201326 0.0247025 0.00833008
0.0207803 0.0208351 -0.0304955
-0.0314906 0.0284765 0.0164599
-0.00876657 -0.0177635 0.0301184
0.00693704 0.00139835 -0.0186962
0.0236813 0.0167755 0.00744282
0.0346367 0.0139742 -0.0132075
0.0310778 0.0256093 0.00643494
0.0414193 0.031901 0.0145689
0.0076067 0.00224353 -0.0177748
0.032531 0.00619069 0.00354945
0.000346415 0.0310699 0.0314667
0.0248489 -0.00165773 0.0216211
-0.0282547 -0.0137395 0.0215667
0.0101881 -0.0180273 0.01705
-0.0323871 -0.00765833 0.020234
0.0171585 0.00863139 0.0245173
0.03456 0.00246641 0.00931336
-0.00347429 0.0113294 0.0346256
-0.00212548 0.0403305 0.0203374
-0.00423227 -0.0139403 0.028206
0.000882542 0.038899 0.0206215
0.0102312 -0.00491786 0.0297636
0.00481789 -0.0111364 0.0288201
0.00580763 -0.0223498 0.0174404
-0.00948421 0.0229967 0.0362621
0.0328559 0.0148579 -0.0141301
0.0229083 0.00682001 -0.00701465
-0.00682099 0.026633 0.0299111
0.0502266 0.0112476 0.0181783
-0.0359483 -0.0048791 0.0173619
0.0263445 -0.00584362 -0.0305565
0.0256182 0.00591691 0.0145834
-0.00538834 -0.0049531 0.0373825
-0.00233417 -0.0246141 0.0173031
0.0135309 -0.0139323 0.0181994
-0.0269004 0.0185868 0.0283507
0.025556 0.0131589 0.0154468
-0.0106604 0.0149111 0.0350704
0.0327466 -0.012868 -0.00681459
0.008267 0.000614101 0.0316775
0.0361 0.0140035 0.0190377
-0.0314674 0.0252525 0.0231
0.00193258 0.0194033 0.0324741
0.00957543 -0.020298 0.00742352
0.01159 -0.0190774 0.00631817
0.0437444 0.028515 0.0200425
0.0229124 0.0192269 0.0047946
0.0358665 0.0342783 0.00312252
0.00482368 0.0383186 -0.00349485
0.0481663 0.020158 0.0136265
0.00569664 0.0374143 -0.00443354
-0.0256503 -0.0156258 0.0207425
0.0166295 -0.0102144 0.0164374
-0.0211223 0.0220044 0.0305833
0.0199061 0.0138502 -0.0325302
0.0147133 0.030213 0.019847
0.036925 0.00855236 0.0191293
-0.0328724 0.00411126 0.0254
0.0198869 0.000466737 0.0181941
0.0281215 -0.0184613 -0.00272542
-0.0113848 -0.0245205 0.016124
-0.0080591 -0.00787959 0.0365034
0.0496643 0.00504592 0.00649256
-0.0126184 -0.00584026 0.0379772
0.00998677 0.000427559 -0.0180524
0.0319525 0.00858959 0.00285866
0.0171919 0.00494603 -0.0185828
0.0508433 0.00413888 0.0190346
-0.0186596 0.0158281 0.0332892
0.0351556 0.00684731 0.00921165
-0.0354839 0.0255341 0.0178
-0.00813951 -0.0239189 0.0209576
0.0128147 -0.0136544 0.0199114
0.0300893 0.00591772 -0.0158928
0.0216341 0.00473157 0.0266933
-0.0386266 0.0176142 0.0136967
-0.00908378 -0.0201159 0.0271838
-0.00497773 -0.0173999 0.0378598
0.0233924 0.0157393 0.00466761
0.0272145 -0.00866128 -0.0288381
0.00916667 0.0345782 -0.00236847
-0.0306702 0.0186329 0.0247085
0.0225323 -0.00311308 0.0254092
0.00749354 0.0239221 0.0280433
-0.0052686 0.00417457 0.0485255
0.0153604 0.00142685 0.0253425
0.0211044 0.0247491 0.0136878
0.00454681 -0.00221148 0.0448914
-0.00619724 0.0303808 0.0299511
0.013707 0.00569748 0.0273917
-0.0258867 0.00147278 0.0307563
-0.00444853 -0.00749158 0.0454551
-0.0206153 -0.0111108 0.0340956
0.0335133 -0.00392837 0.0290155
0.0268231 0.0100132 0.0101
0.0172 -0.0211863 0.00717466
0.0309664 0.028811 -0.00736471
0.00681402 -0.00676549 0.0318183
0.00224379 -0.0171647 0.0352136
-0.031927 0.0256327 0.0180362
0.0217214 -0.0225822 -0.00155237
0.0235394 0.0262225 -0.0275977
0.00135536 -0.017684 0.0264684
0.0320334 0.00138085 -0.0143147
0.0184091 0.023924 0.0146223
-0.0167844 0.0173797 0.0376342
0.00122784 -0.0181198 0.02255
-0.00801001 0.0393421 0.0230998
0.0158159 -0.00772248 -0.00699397
0.0308928 -0.00292931 -0.0139172
0.015462 -0.0120832 0.0157836
0.0289475 -0.00217129 0.0037
0.00675112 0.00770064 0.0349002
0.029124 -0.0149818 -0.00735577
-0.0115548 -0.019948 0.0271094
0.0337159 0.0157839 0.0083283
0.0203191 0.0122811 0.0165493
0.0508379 0.00660169 0.0120621
0.00400509 0.00873363 0.046463
0.0502309 0.00140731 0.0154359
0.00934475 0.0112505 0.0329409
0.00498407 -0.0112701 0.0300594
0.00878269 0.0196394 -0.0203379
0.0247379 0.00160609 0.0102304
-0.0228202 0.0211143 0.02985
0.00472952 -0.0137013 0.02516
0.0205613 -0.00226334 0.015521
0.00720475 0.0210077 0.0295
0.0210193 0.0303946 -0.00906013
0.00860149 0.00859204 0.0336262
0.0373852 0.0321228 -0.0194364
0.00883334 -0.0190263 -0.00422809
0.00317398 -0.0139905 0.0291044
0.00914907 -0.0222186 0.0100534
0.0177986 -0.0140764 0.0081386
-0.0374781 0.0248627 0.00826874
0.00638753 0.0182549 0.0322089
0.0261 0.0302642 0.0110266
-0.0317254 0.0141952 0.0248307
0.0118426 -0.0163215 0.0179
0.0274409 0.0222071 -0.0141834
-0.0362606 0.0104998 0.0218333
0.0471741 0.0033213 0.000379404
-0.00802563 0.0131166 0.0395184
0.00580052 0.0175724 0.0314333
-0.00850265 0.0331041 0.0291192
0.0230014 -0.00395686 0.0073104
0.0315061 0.0221085 -0.0114076
0.0363312 0.0122634 0.018263
0.00573122 0.030953 0.0342661
0.00665223 0.00727487 -0.018678
0.0346318 0.00330074 0.0315778
0.0499628 0.0129161 0.0246381
0.00225522 -0.00580681 0.0441772
0.0297927 0.0148775 -0.0150808
0.02735 0.00324553 -0.00250431
-0.0183676 -0.0100138 0.0295154
-0.00140976 0.0147185 0.0476251
-0.012768 -0.0193641 0.0278676
-0.0426853 0.00397725 0.0028375
-0.00868119 -0.0214881 0.02035
0.0119383 0.00773443 0.029165
0.0205427 -0.0113307 0.011919
0.0267276 -0.0190778 -0.0031065
0.00491821 0.0338577 0.0238
0.0500017 0.00609015 0.00748127
0.00738755 -0.0113113 0.0256714
0.00668334 -0.00842945 -0.013427
-0.0133346 0.0346449 0.0278675
0.01463 0.00646592 -0.0316561
0.019431 0.000436237 0.0200599
-0.000668574 0.0283807 0.0298375
0.0239105 0.00928885 0.0157
0.00166744 -0.0122607 0.0409786
0.014829 0.0131503 -0.0188238
0.0346438 0.0113311 0.00921003
0.0476486 -0.0067247 0.0155479
0.0385857 0.0213435 -0.0081877
-0.0337123 0.00322855 0.0245714
0.0249969 0.0100363 -0.00311588
0.0173897 0.0231167 0.0224183
0.0289457 0.0154636 -0.0321681
0.00304056 -0.0202725 0.0192
0.014189 0.00767148 0.0290471
0.0467331 0.0220676 0.00570413
0.0346214 0.0184567 0.0253441
0.000484449 -0.0218742 0.0182
-0.0300722 -0.00741881 0.0236
0.0302333 0.0222043 0.00468967
-0.0106328 -0.0141022 0.0283252
-0.0389004 0.00717247 0.0168007
0.0219455 0.0211931 -0.016006
0.0221902 0.00137897 0.0163167
-0.00766211 0.0273403 0.032431
0.000203142 -0.0240966 0.01485
0.0274638 -0.0138864 -0.0096202
0.03413 0.0086096 0.0335096
-0.0247908 0.0230436 0.0271778
0.01565 0.0059252 -0.0119145
0.0181671 -0.0138483 0.0191115
0.0245094 0.0180858 -0.0319349
0.0161605 0.0256396 0.02
0.0423067 0.0302434 0.0199173
0.0301448 0.0247847 -0.0114241
0.00540979 -0.00465022 -0.01608
0.00317502 -0.00136404 0.03204
0.0112712 -0.0195184 0.013
0.00627453 0.0109592 0.0333562
0.0140351 0.0303394 0.0246604
-0.0296384 0.011329 0.0282236
0.00674202 -0.0130277 0.037885
0.0137624 -0.0174711 0.00279298
-0.00232793 -0.0236707 0.0181943
-0.0063192 0.0246161 0.0351429
-0.0169295 -0.013706 0.0269993
-0.000364714 -0.0194159 0.0218167
0.038256 0.0220065 -0.00793065
0.00749037 -0.00213905 0.0333472
-0.0232597 0.00224267 0.0320437
0.00590531 -0.0221128 0.0128886
-0.00332967 0.0151024 0.0481671
-0.00522351 -0.0175922 0.0254476
0.00842683 0.0121547 0.0333553
-0.0214893 0.0383977 0.0157349
0.0253993 0.0271919 -0.0112072
0.0476069 0.0176825 0.00465764
0.0220477 0.0076713 0.0298234
0.00747967 -0.0218383 0.00812351
0.013819 -0.0111508 0.0215571
0.0271087 -0.00948898 -0.0125606
0.00848489 -0.00746106 0.040581
-0.033831 0.0275305 0.0118095
0.048059 -0.00125636 0.0271407
-0.0058311 -0.0184505 0.0379248
0.0181847 -0.00604627 -0.00489675
-0.00966773 0.0368176 0.0266357
-0.013759 -0.0109082 0.0304
-0.00336549 -0.014516 0.0277327
0.0171 -0.0214929 0.0080486
-0.00507643 0.0191889 0.0468426
0.00849328 0.0211695 0.0406686
-0.0224382 -0.000490783 0.032038
-0.0225492 -0.0186559 0.0184469
-0.00941904 0.0319593 0.02608
0.0228168 -0.00677287 0.0128051
0.020901 0.00461879 -0.0326722
-0.00136411 0.023047 0.0309333
-0.017635 0.0133377 0.0392684
-0.00130378 -0.0227333 0.01728
-0.0350129 0.00955634 0.0220088
-0.0192845 -0.0129304 0.0277833
0.000430068 -0.00313287 0.0361221
0.00772931 0.0185019 0.0326755
-0.017499 0.0274938 0.0295321
0.028909 0.0339776 -0.0206502
0.00134458 -0.0075831 0.0299667
0.0262877 0.0144657 -0.0325037
0.0353282 0.0233155 -0.00904317
-0.00711408 0.0387903 0.0235352
0.0180678 0.013141 0.0227723
-0.00576254 0.0246072 0.044781
0.0108659 0.0284339 -0.0099536
-0.020674 -0.000295104 0.0377322
0.0244792 0.0121998 -0.0331069
-0.00501295 -0.00780731 0.0454827
0.00871473 0.0104853 0.0310714
0.0109255 0.015936 0.0282667
0.00555214 0.00773756 0.0328218
0.0232856 0.0104379 0.0272515
0.0314735 0.0300971 -0.00525298
0.0272517 0.000901902 -0.0325712
0.00150102 0.00389422 0.0374646
0.00971462 0.0255086 0.0378138
-0.0104156 0.0197667 0.0329333
0.0155933 -0.00569637 0.0226128
0.0196561 -0.00751779 0.000994624
0.0147816 -0.0176753 0.0182968
0.00489821 -0.00940111 0.0317168
0.012913 -0.0199966 0.010209
0.00104882 -0.0186263 0.0244309
-0.00332042 0.00875664 0.0356176
-0.00851315 0.0320351 0.0301288
0.00538961 -0.0166175 0.034515
0.00836101 -0.0211422 0.0175289
-0.0344915 -0.010005 0.0151892
0.0165921 0.0201875 0.0216714
-0.0241705 -0.0160214 0.0209501
-0.0239751 -0.00666086 0.0288288
0.00822437 0.0290739 -0.00939616
0.0490442 -0.00215076 0.0226471
0.00847484 0.0317846 0.0216305
0.0231659 0.0149861 0.00300881
0.00942005 -0.0183721 0.0154903
0.0232639 0.0194093 0.020839
0.0501131 0.0122337 0.0199985
0.0167267 -0.0166915 -0.000848514
-0.00854963 -0.0234113 0.0188507
0.0100111 0.0274679 -0.00786346
0.014564 0.013132 0.0278853
-0.00222231 0.00227279 0.0480042
0.0290934 0.0136399 -0.0325506
0.010662 -0.0146206 -0.00686716
-0.0124325 0.031171 0.0295731
0.0473183 0.0222529 0.0118453
-0.00631559 0.0165477 0.0384894
0.0212706 -0.00251856 0.0245204
0.0349417 0.00500588 0.030754
0.01215 -0.025595 0.00995328
-0.013294 0.00321334 0.0350772
0.022067 -0.0190384 -0.00491209
-0.00480322 0.0394905 0.0219895
0.0337037 -0.00477131 -0.0112923
-0.0223334 0.0221636 0.0290335
-0.0190415 -0.0239636 0.012851
0.032648 0.024639 -0.0103077
-0.0289413 0.028811 0.0185091
0.0089 0.0332594 -0.00391715
0.0220467 0.0010694 -0.001386
0.0118434 0.0266755 0.0227758
-0.0105596 0.0176184 0.0344823
-0.0159981 0.0139857 0.0344123
-0.000543504 0.00506698 0.0354435
0.0482339 0.015887 0.0046579
-0.0219189 -0.0153561 0.0241
0.0472795 0.00146763 0.00105073
0.0335454 0.0281066 -0.00674051
0.0288333 0.0283337 0.00649531
-0.00857397 0.0211376 0.036921
0.0134573 0.0337654 0.0200056
-0.00957895 -0.0216369 0.0205658
0.0145681 -0.0131618 0.017378
-0.0397207 -0.00486131 0.0082153
0.0362438 0.00958598 0.0146135
0.0214423 -0.00933521 0.0128209
-0.00583663 0.0158326 0.033675
0.0208641 -0.0192903 -0.0052624
-0.00590664 0.0337786 0.025
-0.0150936 0.0231934 0.0319807
-0.00786566 -0.0103127 0.0308643
0.0353833 0.0166868 0.0154738
0.03395 0.00954827 0.00644556
0.0181035 0.00283698 -0.0326567
0.000216721 -0.0261696 0.0147321
0.0287778 0.0221929 0.00296228
-0.0157563 0.0230611 0.0308667
0.0053 0.00625971 -0.017664
0.02009 0.00234203 0.0200438
0.00411919 -0.00594813 0.03025
0.0499898 0.00327065 0.00738152
-0.00314249 0.0301781 0.0316083
-0.0125335 0.0281234 0.0324471
0.00810869 -0.0215522 0.01335
-0.0186876 -0.0137629 0.0262976
0.0509003 0.00494157 0.0146095
0.00828236 -0.0200267 0.021525
0.0249593 0.00771428 0.0109978
-0.0035004 0.0238758 0.0446129
0.0118317 -0.0187971 0.00679442
0.0505093 0.010387 0.0163647
0.00752036 0.0121724 0.0313857
-0.0412216 0.00950968 0.0109187
-0.0195894 -0.0102075 0.0288528
0.00308113 -0.00387949 0.0314364
-0.00545874 -0.0102516 0.0351368
0.013 -0.022509 0.00547626
0.0199208 -0.0145043 -0.0112962
0.0248228 0.0132887 0.0109057
0.0184895 0.00956401 -0.00899971
-0.0167093 0.0319502 0.0242667
0.0102077 -0.00210129 0.028675
-0.00795142 0.0176989 0.0383905
0.0126341 -0.0180171 0.0198806
0.0234857 -0.00485334 0.0136548
0.0488968 0.0148544 0.0074084
0.0211799 0.0194332 -0.0170477
0.0185521 0.0199528 0.0235283
0.0222908 0.00326054 0.0101782
0.0215196 0.00309894 -0.0024731
0.0104633 -0.00770497 -0.0140629
0.0280019 0.0189719 -0.0312913
-0.0337164 0.013054 0.0245571
-0.0339559 -0.00767044 0.0181889
-0.0116538 0.0268275 0.0337868
0.0162283 -0.0164979 0.0154695
0.0499732 0.0130453 0.0171561
0.00370329 -0.0172617 0.0342858
0.00176862 0.0148984 0.0370662
0.00484805 0.0040644 0.0360927
0.0172503 -0.00687941 -0.0290982
0.0172555 0.00224148 0.0245316
0.0472477 0.0210671 0.00917284
0.0122513 -0.00861915 0.0255919
-0.0210226 0.0319502 0.0235813
0.0218166 0.00686271 0.01824
-0.000611004 -0.0127598 0.0277333
0.00484938 0.00769465 0.0360944
0.0264538 -0.00772768 -0.0136807
-0.0304841 0.0340129 0.0193667
0.0297051 0.0157296 -0.0318343
0.0108033 0.0329827 -0.00681408
0.0106448 -0.0182933 0.0213878
0.0352047 0.000542972 -0.0125904
0.00367513 -0.00668293 0.0432845
0.00666155 0.0268676 0.0257143
0.00581838 -0.0138767 0.0243
-0.00879346 -0.0177152 0.0247112
-0.00424909 -0.0184125 0.0244971
-0.0327979 0.014902 0.025425
0.00675631 0.02746 0.0253695
0.0176263 0.0175301 -0.0113154
-0.0214096 0.0367255 0.0166222
0.00132825 0.020374 0.0445994
-0.00168929 0.0203024 0.0458593
0.0485484 0.000527551 0.00463832
0.0124701 0.00105621 -0.0182011
-0.00228802 0.026678 0.029725
-0.0231756 -0.0234885 0.0082702
-0.0400126 0.00705354 0.0189
0.0215277 0.0130796 0.011993
0.036275 0.014957 0.0226695
0.00853934 -0.0201086 0.019999
0.0458196 0.0255598 0.0172419
0.0366333 0.0112784 0.019938
-0.0210413 0.0183592 0.0323167
-0.0221624 0.0308556 0.0225748
-0.0263653 -0.0206884 0.00983498
0.0336091 0.0211152 0.0201657
0.0114908 0.0272403 0.0348973
-0.0143464 0.0167374 0.0386977
0.0342167 0.0103962 0.00742581
0.0481657 -0.0040442 0.0082992
-0.00339382 -0.0183372 0.0246236
0.0166281 -0.014113 0.0132
-0.0415307 0.0149366 0.00858481
-0.0142241 0.0140071 0.0349711
0.0242945 0.00498018 0.0235874
0.0218813 0.0175018 -0.00678053
0.00949222 0.016725 0.0290364
0.0192378 0.00774476 0.0219302
0.00298911 0.0204903 0.0347051
0.0110473 0.0297941 0.0247
-0.0373966 0.0212277 0.019175
-0.0246341 -0.0136197 0.0241667
-0.0260826 -0.00236992 0.029242
0.0503671 0.0103706 0.0190098
0.00570012 0.0130806 0.0352183
-0.0180477 0.00934071 0.039449
0.0261228 0.0310932 -0.006329
0.00305978 -0.0260359 0.00590032
-0.0182879 0.00143053 0.0340667
0.0130905 -0.0194188 0.0200765
0.00399887 -0.0248898 0.00297375
-0.0121598 -0.026439 0.0189716
0.0249153 0.00480277 0.0130667
0.0198735 0.0117823 -0.0328376
0.00492872 -0.00762054 0.0424803
0.0364239 -0.00934312 -0.00695626
0.049788 0.0158481 0.0190954
0.00296325 -0.0145729 0.0287815
0.0130206 0.00148091 0.027875
0.0202485 0.0230612 0.00825293
0.0262387 0.00285545 -0.0329867
-0.0361859 -0.0104525 0.0110644
0.048192 0.0201563 0.0127584
0.0339917 0.0176576 0.0299087
-0.00672466 0.0229342 0.0314667
0.0490831 0.0122111 0.00557953
0.0243833 0.00945676 -0.00604121
-0.017863 -0.0222512 0.0165367
-0.0185387 0.0166301 0.0331963
0.0340533 -0.0066529 0.0191383
0.033425 0.0113525 0.0055992
-0.0366351 0.0166432 0.0205563
-0.0398319 0.00498639 0.0147617
0.0093387 -0.0221563 0.0154582
-0.017698 0.0295098 0.0258
0.0362609 0.0256316 -0.00593805
-0.0250123 0.0194601 0.028981
0.03065 0.00495275 0.00110997
0.0361889 0.034657 -0.0221997
-0.00332658 -0.0171724 0.0288829
0.0233658 -0.00230673 0.00652915
0.0165769 0.00237327 0.0265067
-0.011248 -0.0147091 0.0327439
-0.00803624 -0.0249418 0.0156567
-0.0315507 0.0240086 0.0202126
0.0497388 0.00686331 0.00647735
0.0342231 -0.00389848 0.0128191
0.0490555 0.00318706 0.0262166
0.0289086 0.0302861 -0.00612893
0.00409533 0.0059227 0.0333385
0.0266813 -0.00499104 -0.000834551
0.0128049 0.00341457 0.0283208
0.00562843 -0.0189571 0.0314846
0.0248344 0.0012801 0.0128688
-0.0177813 -0.0237954 0.0146445
0.021845 0.00859169 0.015447
0.00839769 -0.00566423 0.0286333
0.021066 0.00949539 0.020025
-0.00167007 -0.00699783 0.0356052
-0.0371852 -0.00747226 0.01826
0.0346091 -0.00200637 0.0270158
-0.00456875 0.0140061 0.0388184
0.0218916 0.00689695 0.0136592
-0.0037961 0.0164481 0.0348742
0.00995069 -0.0210154 -0.00077983
0.0146304 -0.0119632 0.0198
0.0104142 -0.019503 0.0083634
-0.0162353 0.0211122 0.0367014
-0.0216758 -0.0105188 0.0338765
-0.0315268 0.0330442 0.0140719
-0.00246686 0.0112776 0.0352182
0.0470608 -0.00219699 0.002895
0.0215025 -0.00846899 0.0191367
-0.0115163 -0.0197913 0.0223602
0.00851603 -0.00393179 -0.0186001
0.0171375 -0.0145725 0.00651706
0.0295 0.0290742 0.0253213
-0.0358235 -0.00566539 0.0198
-0.0132923 -0.0141537 0.0272554
-0.009802 0.037679 0.0221167
0.0103023 -0.0138339 0.0207556
0.0124109 -0.0202653 0.015287
0.0482085 0.000385203 0.00370288
0.0481752 -0.00497543 0.0199669
-0.0166094 0.0374779 0.0193
-0.00332973 0.00146147 0.0386098
-0.018065 0.0220412 0.0362951
0.019325 -0.00671827 -0.00609229
0.020225 -0.00772572 -0.00516553
0.0262091 0.0301838 0.0100953
0.0481699 0.0192927 0.0102328
0.0193561 -0.0101658 -0.00164901
0.0210333 -0.00483687 -0.00551563
-0.0415058 0.0195828 0.00475981
0.0190213 0.0117972 -0.0327004
0.0110194 -0.00284564 0.02775
0.00924912 -0.00920253 0.02595
0.0170977 0.0190506 0.0223
0.0325133 0.00863979 0.00377378
0.0194188 0.0184634 0.0145769
0.0076946 -0.023038 -0.00242175
-0.00967849 0.0131016 0.0353631
-0.00783737 -0.0173698 0.025261
-0.000696019 -0.00106917 0.0340907
-0.0336649 0.0023749 0.0245333
0.00758966 0.00228516 0.0446543
0.000422159 -0.0156971 0.02535
-0.0166518 0.0183083 0.0333039
0.0263492 0.0245027 -0.0129369
0.0482329 -0.00216797 0.0263085
-0.038711 -0.00311104 0.0172625
0.0388192 0.0345037 0.00473684
-0.0395755 0.0104774 0.01805
-0.0133099 -0.0221193 0.0182891
0.00773087 0.00481097 0.0331
0.0167066 0.0186254 -0.0172301
0.0318692 0.0174237 0.00574934
0.0136305 0.00554791 -0.0314384
-0.000948072 0.00688015 0.0383292
0.0225065 -0.00394312 0.00290228
-0.0188873 -0.0121689 0.034244
0.0188034 0.00697242 -0.0116185
0.00729295 -0.0142221 0.0256962
-0.0371985 0.000491325 0.0197
-0.00681308 0.00593697 0.0359688
0.0205745 0.0221614 0.00743439
0.000391757 0.0119465 0.0473215
-0.0313153 0.0120788 0.0270167
0.0083114 -0.0117312 0.0268798
0.0288441 -0.00130689 -0.0151605
0.0222306 0.00846648 -0.00150443
0.0192622 -0.0130755 0.0109398
0.0219983 -0.00742761 -0.000114493
-0.018464 -0.0184269 0.0264218
-0.0223857 0.0156769 0.0322615
0.0185369 -0.00770401 0.0136619
0.0353485 0.0111639 -0.0130603
-0.00409921 0.0167713 0.0332778
0.0361837 0.0346931 -0.0213714
0.0157298 -0.00500269 0.0227498
-0.018767 -0.0145064 0.026895
0.00999107 -0.00760398 0.026425
0.0230063 0.0158562 0.0254853
0.0345272 0.0153194 -0.0127972
-0.0267664 0.00500186 0.030683
0.0342413 0.0022193 -0.0135106
-0.0373847 -0.00570069 0.0137168
-0.00532535 -0.0186532 0.0282471
-0.0202236 0.0130773 0.0386432
0.0342667 -0.00305396 0.0272169
-0.0329176 -0.00657092 0.0207862
0.0503677 0.00678523 0.00919938
-0.00219617 0.0112752 0.03415
0.00286653 -0.0104122 0.0419017
0.020597 -0.011162 0.0145916
0.00657789 0.0229503 0.02866
0.044529 0.02755 0.0198264
-0.0167288 -0.0256272 0.0138444
0.0128478 -0.0174175 0.00915228
0.00119893 0.0219141 0.035067
-0.00807701 -0.0102517 0.0353783
0.0203206 0.0248559 -0.0151786
0.0309 0.0230538 0.008301
-0.0180164 -0.017784 0.0227612
-0.00675146 -0.0230779 0.0218102
0.0172218 0.000439489 0.0263975
0.0270756 -0.000416348 -0.0161038
0.00757761 0.0204204 0.0316838
0.00370756 0.0168105 0.03205
0.0137175 0.00497163 0.0273056
-0.000790157 -0.00295556 0.0333101
-0.00347435 0.0220211 0.0454178
0.00219444 0.00770064 0.037531
-0.0411971 0.0175606 0.00747261
-0.0205362 0.0302369 0.0272493
0.0240375 0.0347785 0.0217597
0.0183 -0.00513905 -0.00812613
-0.0320561 0.0302254 0.0128361
0.030925 0.0211384 0.00481534
0.0289191 -0.00342744 -0.0311442
0.0280055 0.0106308 0.00813334
0.0101 -0.0240935 0.00651875
-0.0108855 0.0220081 0.0367111
0.0272543 0.00698644 0.0095
-0.0151211 -0.0143817 0.0277125
-0.0333326 0.0302297 0.011256
0.0249861 0.0103847 0.0119229
0.0068 0.00591587 -0.016017
0.00789883 0.00749627 -0.0189188
-0.0241928 -0.0240449 0.00566218
0.0503514 0.00226442 0.0154711
-0.00905328 -0.0146814 0.0323624
-0.0138647 -0.027323 0.0128667
0.0193481 0.021287 -0.0032919
0.0263738 -0.0188226 -0.00351917
0.022567 0.0247748 -0.0140129
0.0299142 -0.00691486 -0.012787
-0.00455354 0.0310637 0.03083
-0.0185807 -0.0210213 0.0180883
-0.0288459 -0.0196569 0.00782547
-0.00954447 -0.015066 0.0274444
0.00266701 0.0369771 0.022478
0.00396446 -0.0262341 0.0125834
0.0177007 0.00676813 0.0238
0.0346821 -0.0111738 -0.00696609
0.0209836 -0.00587077 0.0253984
-0.0369089 0.0298716 0.00686531
0.0203626 0.0112671 0.0199961
0.0364111 0.00417686 0.0253096
0.0171326 0.0184413 0.0199327
0.00630512 -0.0108851 0.0394792
0.0218976 -0.0092647 -0.0032645
-0.0202454 -0.00124807 0.0378042
-0.0367688 0.0176822 0.0164494
-0.0118798 0.0285184 0.0319543
0.0136013 0.0166996 0.02605
0.037217 0.0176455 -0.0100583
-0.00981203 0.00252212 0.0358136
0.0174626 0.0159626 -0.0123127
0.0238379 0.019389 0.0109366
0.0315062 0.00772453 0.00199524
-0.009001 -0.0279387 0.0167438
0.0125951 -0.0184857 0.00562238
0.0379093 0.0122096 -0.029903
0.0177338 -0.0104899 0.000184166
0.0236913 0.00497212 0.00288595
-0.0101779 -0.0218507 0.0245439
-0.0231304 0.0249546 0.02646
0.00828152 0.0042886 -0.018456
0.0243828 0.00319365 0.0137449
0.0508966 0.0057655 0.0136055
-0.017627 0.0337076 0.0217667
-0.0262618 0.014112 0.0302637
0.0395976 0.0328732 0.0100516
-0.00125717 -0.0234057 0.0161667
-0.0342169 -0.0124148 0.0121916
-0.0148442 -0.0137778 0.0280556
0.0477142 0.0212325 0.0172719
-0.0340756 -0.00655848 0.0207167
-0.00590042 -0.0183214 0.0288742
0.0228293 0.0105964 0.0252472
0.0228024 -0.00401657 1.7841e-05
-0.00409938 0.022808 0.0313714
0.00016123 -0.00420754 0.0319944
-0.0140124 -0.0201969 0.0262477
0.0280808 0.0198958 -0.0309859
0.00847635 0.0210631 0.02875
0.0309505 0.00883223 0.00636667
-0.0156647 0.0346991 0.0218667
0.0255991 0.00774026 0.0145722
0.0237718 0.00588761 0.01458
-0.0382343 0.0317261 0.0103725
0.0229776 0.0203739 0.0199617
0.0348875 -0.00489266 0.0200026
-0.00176348 0.0236738 0.0443545
-0.0126615 0.0221148 0.0365625
0.00930001 -0.0182403 -0.00575184
-0.00207255 -0.00457044 0.0367036
0.0220824 -0.00387609 0.00461396
0.0230463 -8.2663e-05 0.022197
0.0497984 0.0130747 0.0110033
0.00468829 -0.0172112 0.0207
0.0149525 0.0204951 0.0227955
0.0130295 0.0228132 0.0234667
0.00403439 0.021275 0.0308
-0.0249251 0.00229921 0.0314511
-0.0056406 -0.0236452 0.0204616
0.00409138 -0.000503876 0.0354518
0.0350375 0.00327113 0.010087
0.00409184 0.0130761 0.0326667
-0.0132746 0.00862134 0.0354846
0.0247934 0.00133988 0.0109932
-0.0112995 0.0320754 0.0253889
0.00661134 -0.0160392 0.0347488
-0.00619862 0.00505555 0.0355656
-0.0278589 0.0113125 0.0359914
-0.0413732 -0.000386787 0.00837552
-0.00479912 -0.0277023 0.0111
-0.000442855 -0.00850822 0.0300667
-0.00696006 0.0305276 0.0298143
0.0183256 0.0185332 -0.00952178
0.00405397 -0.0146775 0.037845
0.0497715 0.0148755 0.0154794
0.00133966 0.00772602 0.0473047
0.0194405 -0.00146302 0.0183508
0.0230005 -0.000458822 0.000115166
-0.00945351 -0.023616 0.0218028
0.0346 0.0184872 0.0155276
0.0270555 -0.00663345 -0.0140053
0.00180363 0.00141851 0.046676
-0.0195102 -0.011889 0.0278242
-0.0310637 0.013134 0.0260595
-0.0126314 0.0229954 0.0363252
-0.0249563 -0.00300582 0.0297071
0.0218851 -0.00212471 0.00562818
0.0247 0.001014 -0.0045311
0.0482472 0.0124161 0.00277985
0.011254 0.0112805 0.0317785
-0.00610586 -0.0211164 0.0216472
0.0226942 -0.00320845 0.0243804
0.0193597 -0.0131269 0.0118348
0.0351 0.0184611 0.0209502
0.0233936 0.00501742 -0.0179311
-0.00111004 -0.00365483 0.0366675
0.0091306 -0.0110702 -0.0141187
-0.0116558 0.0176744 0.0387971
-0.0114968 -0.0277028 0.0109138
-0.0212469 0.0068272 0.0333031
-0.00861254 -0.0229015 0.0181857
0.00912227 0.0104504 0.0435998
0.00318554 -0.0155852 0.0371158
-0.0346363 0.026203 0.011526
-0.0108411 0.0167091 0.0391104
-0.0148925 0.0326478 0.0294983
-0.0130556 0.0214326 0.03195
0.0223837 0.00507206 -0.00166971
0.0257 0.00719578 -0.00476096
-0.00674226 0.000545422 0.0390776
0.0029444 -0.0200275 0.0199288
-0.0116372 -0.00316242 0.0387848
0.0389189 0.0100918 -0.02979
0.0212191 -0.0094871 0.00760926
0.00293378 -0.0100335 0.02865
-0.0367004 0.0171051 0.0204
0.0158015 -0.0157604 0.00562598
0.0349917 -0.00402213 0.0172626
-0.0103467 0.0247718 0.03046
-0.0417334 0.0131053 0.0083523
0.00836275 -0.0111666 0.0270451
-0.000788833 0.0348773 0.0238958
0.0158616 0.0104799 0.025475
-0.0193679 -0.0155798 0.0254667
0.0175 -0.020846 0.00470518
0.00652877 -0.00906132 0.0277
-0.0348629 -0.00773989 0.01945
0.0309982 0.00145235 -0.0148761
0.00981107 -0.0146655 0.0242551
0.0280934 -0.015753 -0.00710082
0.015187 0.025691 0.0334953
0.0210632 0.00320008 0.019025
-0.0148829 0.0275404 0.0279455
0.0481353 -0.0003333 0.0270394
0.0234363 -0.00220911 0.0218213
-0.0415462 -0.00226553 0.00326423
0.0054063 -0.0237157 0.00918779
0.0201486 0.0255402 0.0101349
-0.0329307 0.0238068 0.0181047
-0.0233462 0.0377821 0.0134
-0.0169069 0.028251 0.0269179
-0.00929568 -0.0151596 0.0320289
0.00396495 0.0274688 0.0279111
0.050592 0.00592158 0.0109612
0.0210833 0.0183984 -0.00694165
0.0505473 0.00317733 0.0145904
-0.00517316 0.00231783 0.0352952
-0.0355989 -0.0126918 0.00802581
0.000505748 -0.0256831 0.0128333
0.0103768 -0.0054733 0.0294583
0.00012678 -0.0150569 0.0271625
0.0276197 0.0128415 0.00775
0.0502736 0.00136619 0.0145907
0.0239811 -0.00718452 -0.0146635
-0.001399 -0.00671444 0.0449731
0.0328813 0.0167549 0.00734615
0.0316259 0.033791 -0.0194995
-0.015935 -0.0119868 0.0288536
-0.0343055 -0.000675012 0.0221671
0.0182281 -0.00559205 0.0260547
-0.0322679 -0.0102688 0.0182575
-0.0024923 0.00236148 0.0350473
0.0238198 0.0211382 0.0172192
-0.0404888 -0.00393959 0.00552431
-0.00443663 0.0301734 0.0311667
-0.014961 -0.0149489 0.027425
0.00287276 -0.00219481 0.0330995
0.0122561 0.00512919 0.0306938
0.0289895 0.00917703 -0.0327552
-0.0259981 -0.0154532 0.021525
-0.0168424 -0.0181917 0.02272
0.00963069 -0.0169425 0.0186
0.0119845 0.0148788 0.030684
0.0073522 0.00949891 0.0328979
0.0243649 -0.00386579 0.00795
0.0212369 0.022023 -0.00439506
0.0274631 -0.0183646 -0.00328257
-0.0258083 0.0140053 0.0306093
0.0363417 0.00139979 0.0182613
0.0096836 0.00140514 -0.0186225
-0.0223586 -0.0167261 0.0211261
0.0191273 0.0102066 -0.0325789
0.00577303 -0.0038969 0.0305714
-0.0179333 0.0300682 0.030561
0.0235785 0.0127479 -0.0329984
0.00199008 0.0132315 0.0374758
0.0235386 -0.00254858 -0.0319822
0.0478864 0.0131803 0.00200414
0.0103413 0.00509238 0.0325935
0.0255309 0.0149366 0.0145792
0.0501976 0.00225167 0.0110357
-0.00157139 -0.00309377 0.0334039
-0.0181389 -0.0194085 0.0255606
-0.0301159 0.0248903 0.0233909
-0.0158103 0.0337207 0.02285
-0.0219967 0.036507 0.0171626
0.0102708 -0.000592771 -0.0183905
-0.00940042 0.0309432 0.02695
0.00748883 -0.00451495 -0.015829
-0.00707541 -0.00673235 0.0329267
-0.00310632 -0.0174066 0.0369803
0.0361 0.00409431 0.0146337
-0.0219142 0.0356863 0.0254693
0.0127211 -0.00690445 0.0247083
0.0324687 0.00411086 0.00375
-0.0277742 -0.0129727 0.0226167
0.0154093 -0.00671885 0.0217125
0.03375 -0.00582109 0.0137136
-0.0125148 0.0318897 0.0297138
0.029748 0.0191993 -0.013875
0.0137468 0.00115399 -0.0309767
0.0490829 0.0168387 0.0219141
-0.0107915 0.0230366 0.0363517
0.0417444 0.0309928 0.0200701
-0.00181487 -0.00389439 0.0368645
-0.00601627 0.0330116 0.028415
-0.00149013 0.0158115 0.034622
-0.00684092 0.0327801 0.02635
-0.0169166 0.00672404 0.0346969
0.011376 0.0122145 0.0283286
0.00396646 0.038987 -0.0034201
0.047623 0.00940749 0.00107302
0.0192656 -0.00664424 0.00999837
-0.0171757 0.0229459 0.0360456
-0.0253243 -0.00712575 0.0276411
0.0164081 -0.010288 -0.00341968
0.00489994 -0.0264226 0.00736667
-0.00498861 0.0260221 0.0303
-0.00051287 0.00323305 0.0342583
-0.0286497 0.00945755 0.029167
0.0230216 0.0104885 0.00835915
0.0167756 -0.00841932 -0.00505611
0.00947654 -0.0210947 -0.00157509
0.00138988 -0.0264943 0.012773
0.0144193 -0.0093211 0.0216465
0.0126542 0.00299559 0.0297359
-0.0196596 0.03116 0.0290768
-0.00511678 0.0225639 0.0454625
0.0158544 -0.0212234 0.0045
0.0250806 0.00678913 0.0208759
0.00950319 -0.0205125 0.00453998
0.00226612 0.0257511 0.0292444
0.00798001 -0.0128908 -0.00885702
0.0138652 -0.0175841 0.0190902
-0.00612906 0.00948444 0.0358452
-0.00418373 -0.0185269 0.0365465
-0.0234628 -0.0104729 0.0266084
0.0243205 0.0175554 0.0110534
-0.0248481 0.000646292 0.0314032
0.0243287 0.00589337 -0.0176948
-0.000670317 0.0277212 0.0418944
-0.0387081 0.0104698 0.0189667
-0.0198488 0.0292087 0.0275032
-0.0159721 -0.00045542 0.0337334
0.00187478 0.0158359 0.0461928
0.0164638 0.0164014 -0.0182839
0.0291577 -0.00213582 -0.0148275
0.0485763 0.0149649 0.00467951
-0.0158309 -0.0266922 0.00910432
0.0288387 0.0285654 -0.00794988
0.00874294 0.013149 0.0331729
0.0149583 -0.0193895 0.00082754
0.0244338 0.00683864 0.0236262
0.0239132 0.0176257 0.0190787
0.00121404 0.0399463 -0.00148707
-0.0395449 0.0189312 0.0177
0.0164747 0.0281227 0.0243762
-0.0193328 -0.0180737 0.0224
-0.0121593 -0.0110796 0.0305286
0.0202598 0.0186025 0.0120321
0.0502195 0.00138941 0.0127827
0.00826696 -0.0104424 0.0256071
-0.0142324 -0.0243539 0.0153541
0.00240857 0.0189665 0.0448282
-0.00334704 0.00130827 0.0347871
-0.0112777 0.0193012 0.0334
0.0233997 -0.00309602 0.0181628
0.0149847 -0.0130105 0.0128404
0.00549349 0.00609076 0.0334537
0.0242884 0.00413538 0.00738132
0.0249909 0.00678594 0.00831446
0.003982 -0.00915816 0.0286667
-0.00594884 -0.00239345 0.038422
0.0337855 -0.00678341 0.022734
0.0068552 -0.0221215 0.00262644
-0.0247843 0.0178345 0.0365661
0.0190741 0.00910571 -0.0327075
0.00593314 0.0288071 0.02645
0.0274313 0.0265404 -0.0114625
0.0355556 -0.00124045 0.0165276
0.0347143 -0.00128778 0.0272522
0.00196238 -0.0248522 0.0157284
0.00849448 -0.0219092 0.00643299
0.0506572 0.00955428 0.0145658
0.0272055 -0.00584505 -0.0304478
-0.00963796 -0.014326 0.0328154
-0.0170673 -0.0251081 0.0123165
-0.0417294 -0.00139357 0.00267346
0.000899849 0.00868273 0.0475214
-0.0314076 0.019397 0.0236362
0.0191009 0.024839 0.00645913
0.0130251 -0.00575678 0.0261587
-0.00770044 -0.0205511 0.0266546
0.0165316 -0.00107403 0.0243666
0.00940584 0.0140407 0.0326971
-0.0169013 0.00950616 0.0346538
0.0194353 -0.0100962 -0.000655444
0.00393247 0.000185283 0.0357192
0.0255565 0.00288894 -0.0173349
0.00943433 0.0293566 0.0235625
-0.00103789 -0.0166429 0.0370976
-0.0307423 0.0125329 0.0266299
0.0355625 0.012339 0.0282204
0.0230385 0.00231392 0.0272795
0.00720704 -0.0235074 0.0108
-0.0166181 0.0242212 0.0302667
0.00753743 -0.0131097 0.0374448
-0.013232 0.0284632 0.0284188
0.00959144 -0.000447517 0.0318494
-0.0187642 -0.00682445 0.0310405
0.00130445 -0.00674385 0.0308889
-0.0208306 0.0329932 0.0227761
-0.0150956 0.0211514 0.0325684
0.0139795 0.00323373 0.0290686
0.0236884 0.0268371 -0.0115706
0.0262435 0.0118819 -0.0327877
-0.0221621 0.0275517 0.02454
-0.00785009 0.0146706 0.0348897
-0.0204999 -0.00584586 0.0310751
-0.0300038 -0.0163846 0.0170667
0.0222889 0.00585838 0.0102448
-0.0233642 0.00412618 0.0378343
-0.000501501 -0.00751597 0.0306
0.03102 0.0275194 0.0245621
0.0246299 -0.0102506 0.00674001
0.0237667 0.00950723 -0.00648374
-0.0049568 -0.0176743 0.0291361
0.0329179 0.00596705 0.004581
-0.022431 0.030376 0.0227804
-0.0286106 0.00230685 0.0288365
0.00825674 0.0308343 0.02385
0.0250903 0.00680887 0.0118312
0.00381649 -0.0170814 0.0216
0.0316198 0.0109418 -0.0321686
0.0252426 0.00405598 0.0173451
0.0502261 0.00408519 0.00831073
0.00445157 -0.0183961 0.0226683
0.00676649 -0.014663 0.02266
0.00744062 -0.0119931 0.0270474
-0.0144848 -0.0214987 0.0185995
0.000551539 0.0284088 0.0290332
-0.00082952 -0.0184949 0.0265059
0.0490569 -0.00199655 0.0101135
-0.0344505 0.0175582 0.02255
0.0246869 0.000452753 0.0155522
-0.00178868 -0.0268021 0.0137921
0.0315482 0.0248212 -0.0107569
0.00409204 -0.00963343 0.02835
0.0275432 0.0320119 -0.00610373
0.006632 -0.0132877 0.0266536
-0.0013777 -0.00940737 0.0298444
-0.0332812 -0.00857929 0.0183129
0.0106322 -0.0202179 0.00477342
0.05039 0.00411687 0.0101614
0.0146491 0.0166888 0.0252
0.025722 -0.00505968 0.0079
0.00426779 0.0148876 0.0457413
-0.00725141 -0.0216582 0.0247402
0.0110046 -0.0203899 0.01175
0.00767474 0.0220887 0.0407355
-0.0224592 -0.025425 0.0102
-0.0257352 -0.0187103 0.0176333
0.025168 0.0112899 0.0146243
-0.033327 0.002179 0.0239609
0.0189076 0.0157715 -0.018411
0.0263011 0.0127976 -0.032687
-0.0399679 -0.00654779 0.00348263
-0.00163204 0.0130931 0.0337732
0.00854105 0.0336773 -0.00659353
0.0370192 0.0309682 0.00196913
0.0163216 0.0260283 0.0217786
0.0209226 0.0209649 -0.016161
-0.000969067 -0.00571211 0.0359038
-0.00272849 0.00961389 0.0482859
0.0194397 -0.00601153 -0.000730547
-0.0151206 0.0131035 0.0347164
0.00921082 -0.0219929 0.00734641
-0.0295366 -0.0140261 0.0165158
0.0256014 0.00865123 0.0145737
0.0190928 0.0163523 -0.0320599
-0.0317895 -0.0166678 0.0142
-0.00880045 -0.0280019 0.0125
0.000124759 0.0185214 0.0458173
0.0243506 0.0131583 0.00382257
0.00201554 -0.0209481 0.0206781
-0.0339722 -0.000369153 0.0226554
-0.0300161 0.00155762 0.0269492
-0.00787665 -0.0222304 0.0201378
0.0221314 0.0123108 0.0291036
-0.0347824 -0.00203348 0.0215726
0.0184235 -0.0138616 0.0173229
0.0075518 -0.00517297 0.0321285
0.0283357 0.0184271 -0.0149579
-0.00906522 -0.00595682 0.0373675
0.011257 -0.0155629 0.0190603
0.00409724 0.0294548 0.0264479
0.0325635 -0.00880627 -0.0099983
0.0235391 -0.00286036 0.0238672
-0.0186757 0.0252013 0.0292931
0.0499064 0.0103286 0.00934037
-0.015326 0.0320111 0.0297717
0.0220191 -0.00648366 0.00287575
0.0268795 0.0103662 -0.0166433
0.00946887 0.0273423 0.0361745
0.00943759 -0.0120814 0.022775
0.000419015 -0.0119925 0.02799
-0.0347022 0.00847677 0.0223855
-0.0248832 0.0300599 0.0208448
0.0201531 0.030839 -0.00949385
0.0135693 0.0140288 0.0290546
0.018376 0.00597218 -0.00885044
0.0238078 0.0124619 0.0147
0.011866 -0.0192292 0.00276206
-0.0166783 0.0148795 0.0388486
0.00405877 0.0194596 0.0345121
-0.000949342 0.0213064 0.0332846
-0.00622699 -0.0114563 0.0346566
0.0251988 0.00315512 0.0173211
-0.0355416 0.000696857 0.0217192
-0.0193909 0.0202933 0.0368586
-0.00856768 0.0248801 0.0307778
0.00196291 -0.0158596 0.0372002
0.0047537 -0.00849615 0.0300821
-0.0277842 -0.00760507 0.0255219
0.0237078 0.00401973 0.00471748
0.00301226 -0.00765344 0.0306259
0.00828214 0.0258673 0.0256313
0.00618889 0.0185074 -0.0178626
0.0504249 0.00769645 0.0101219
-0.00609514 0.0113593 0.0355452
0.0479468 0.003135 0.0299463
-0.00705561 0.0300789 0.0291566
0.0209469 0.0132057 0.013592
-0.0250313 -0.0156232 0.0208861
0.00307517 0.0247478 0.0415236
-0.0209281 -0.0115047 0.0276389
0.00584526 0.0131988 0.0319571
-0.00546017 0.0068216 0.0396923
-0.0282734 0.0261864 0.0215505
0.0219844 -0.0187226 -0.00552184
0.03385 0.0168064 0.0319068
-0.0257734 0.0212162 0.0278696
0.0076 0.0328611 -0.00447594
0.01655 -0.0212984 0.0057593
0.0234571 0.0122298 0.0262378
-0.0336651 -0.0038905 0.02254
-0.00365767 0.0365594 0.024513
0.0494889 0.0122308 0.00831732
-0.01773 -0.0165207 0.0245468
0.0105337 -0.0203799 0.00304055
0.0139032 0.0158222 0.0279564
0.026244 0.019175 -0.031469
-0.00814867 0.031069 0.0305007
0.0482984 -0.00133641 0.0262886
0.0220787 -0.000472899 0.00748898
0.0155 0.00704884 0.0259
0.0363416 0.0228562 -0.00862446
-0.0375441 0.0217739 0.0195
-0.0196322 0.0348587 0.0200481
-0.0401421 -0.00213164 0.0154
-0.0114458 0.0185005 0.0343162
0.0166788 0.0292635 0.0154949
0.0234947 -0.0220628 -0.00170603
0.00518748 -0.0210886 -0.00341831
0.0129995 0.00776578 0.0302534
-0.0166573 -0.00835673 0.03136
-0.0159432 0.00774353 0.0349901
0.00131739 -0.00126501 0.0459492
0.0218857 0.00409406 -0.00220709
0.0482322 0.00205268 0.0289406
-0.0103057 0.00478954 0.0358261
0.0181512 -0.0140433 0.012005
0.00915346 -0.00939099 0.0280739
-0.0220611 0.000468806 0.0322459
0.00993046 -0.0183618 0.0136079
-0.00499518 -0.0195446 0.02288
0.0113463 -0.0031338 0.0274222
0.00924197 -0.0106577 -0.0143925
-0.0177602 -0.00127763 0.0333191
-0.0184167 -0.00870973 0.0356899
-0.0304549 0.0132674 0.0278444
0.0502466 0.00311567 0.0100498
-0.0187213 0.0230382 0.0309143
-0.0130455 -0.0091989 0.0314286
0.0373752 0.00317593 -0.0114476
0.0250769 0.0132231 -0.0173655
0.0254151 -0.00606476 -0.0145797
-0.00158429 0.0166812 0.037663
0.0242634 0.00137566 0.00741895
0.00587973 -0.0238132 0.00824164
-0.000498137 0.0311164 0.0317071
0.030325 0.0250475 0.00595595
0.0161844 -0.000312366 0.0236375
0.0202537 0.0149996 0.0137196
1.02132e-05 0.0245729 0.0431823
0.00800001 0.0320576 -0.00413087
0.0143255 -0.0183248 0.0172447
0.035275 0.00770265 0.00920112
-0.00356468 0.0247696 0.0443242
0.0145226 0.00144041 0.0264025
0.00876114 0.0211465 0.0305066
0.00935519 0.0321905 -0.00824635
0.0254022 0.00948409 0.0137022
0.0082 -0.0196353 -0.0036277
0.0173913 -0.00919327 0.0155935
-0.0258155 -0.0202646 0.0118614
-0.00169745 0.0386652 0.0219186
-0.0323766 -0.0120009 0.0190625
-0.0354847 0.013201 0.02256
-0.0110133 -0.0212216 0.0253341
0.0174836 0.019445 0.0218
0.00605714 0.020328 -0.017835
-0.0043976 0.00499398 0.0484502
-0.0159492 -0.0204032 0.0253741
0.0229583 0.0180118 0.0161
-0.0311656 0.0184784 0.0243106
0.0292943 0.00863559 -0.0161411
0.0337016 -0.0114159 -0.00742707
0.0495826 0.0149329 0.0218129
0.0507206 0.00774254 0.0118507
-0.00766143 0.00495115 0.0360917
-0.00347863 0.0399395 0.0224083
0.0341899 0.0220469 -0.0104385
0.0374932 0.000505435 -0.0107065
0.00733717 0.024176 0.02747
-0.0133539 -0.0150016 0.026604
-0.0345334 0.00143678 0.0234375
