ply
format ascii 1.0
comment Created by Open3D
element vertex 1526
property double x
property double y
property double z
end_header
0.015767 0.00593913 0.0272123
-0.0258935 -0.00770249 0.0274599
-0.0151034 0.00583537 0.0350703
0.00467365 -0.0274217 0.00557053
0.0176025 0.0176148 0.0226333
-0.000410508 -0.00852508 0.0343899
0.0279696 0.00498688 -0.0169331
0.00660562 0.00420577 0.0322
-0.0250869 -0.00868351 0.0273188
0.0194978 0.0130119 0.019095
-0.00355539 -0.00572958 0.0460381
-0.0347068 0.019422 -0.029164
-0.0353076 0.004389 0.0250454
-0.0125507 -0.0217854 0.0244127
0.0347 0.000554112 0.00999541
0.0366 0.00590085 0.0235724
0.020296 -0.0068341 0.0074357
-0.0323943 0.0178476 0.0247
0.00385735 0.00686344 0.0341199
-0.0458133 -0.00418422 -0.000601228
-0.0117177 -0.017736 0.0247628
0.0100616 0.0210102 0.02782
-0.0317505 0.0247732 0.0190667
-0.0358419 -0.00397565 0.0182112
-0.0161172 0.0319963 0.0289837
0.033765 0.00504519 0.0063984
0.000424391 0.0014406 0.0333111
0.00144058 -0.0190242 0.0241745
0.0199138 -0.00418705 -0.0163082
-0.0343988 -0.0154937 0.0124196
-0.0337168 -0.0141332 0.0152407
-0.02602 0.0266754 0.0246639
0.0237807 0.014699 0.00468244
0.00342278 0.00689221 0.0466049
-0.00945395 -0.0227793 0.018918
-0.030943 -0.0082808 0.0241051
-0.01491 -0.0241286 0.0154223
-0.0390021 0.0236817 -0.0152536
-0.00527859 -0.0081618 0.0323037
-0.0340922 0.0086338 0.0244667
-0.0348335 0.0228803 0.020838
-0.0454837 -0.000609609 0.000252219
-0.01335 0.0280542 0.0285885
0.0502806 0.0112885 0.0190386
0.0232716 -0.00399711 0.0173091
-0.00480322 0.0394905 0.0219895
-0.0204468 0.0104099 0.0327406
0.0229643 -0.0059472 0.0100145
-0.00238581 0.0227004 0.0343605
-0.0176668 0.0371694 0.0242101
0.0230828 0.0231675 0.016386
0.0103958 -0.000373647 0.0292333
-0.00543003 -0.0168073 0.0302705
-0.0404698 0.0203044 0.008543
0.0163149 0.00372739 -0.0322653
0.000151076 -0.022988 0.0172076
0.0199646 0.0196914 -0.0308279
0.0509003 0.00494157 0.0146095
0.0166795 -0.015513 0.0207853
0.0248576 0.0149041 0.0118453
-0.0354334 0.025497 0.0106039
-0.0104929 -0.0268257 0.0125672
0.00184708 0.0241219 0.0327663
-0.017591 0.0302146 0.02527
-0.0385399 -0.00940766 -0.0133197
-0.0259633 0.0220219 0.0271843
0.0355864 0.0058412 0.0291683
0.0113212 0.00948746 0.0318334
-0.0106461 0.0023341 0.0345938
0.0482984 -0.00133641 0.0262886
0.0328421 0.0149532 0.00648284
-0.0371896 0.0326124 -0.00435747
0.0180588 0.00764075 0.0235179
-0.0359 0.0121918 -0.0343954
0.00550152 0.00307493 0.0335449
0.049261 0.00316931 0.0253475
-0.038 -0.0108723 0.00713092
0.0253364 0.0135501 -0.0327378
-0.0350939 -0.0157294 0.00382557
0.000295601 0.0140334 0.035312
-0.0448139 0.00682482 -0.00879143
-0.00869054 -0.0264601 0.0136323
0.0497859 0.0148955 0.0145317
0.024861 0.00304859 -0.00415215
0.0496587 0.00148462 0.00826135
0.0208164 -0.00230675 0.0127846
0.0171022 -0.0191589 0.0072
-0.021291 -0.0228927 0.0120355
-0.0303182 0.0353094 0.0100208
0.0498819 0.000538476 0.0110813
-0.0268334 -0.01297 0.0235791
-0.0336568 0.0290278 0.0110956
-0.0402072 -0.000383849 0.0129095
0.0164468 0.0302267 0.0154132
0.0507123 0.00503841 0.0128077
-0.0374774 -0.0065954 0.0181599
-0.0318292 0.0267342 0.0174538
0.0478167 0.0176005 0.00555422
-0.0469 -0.00466207 -0.008728
-0.0436333 0.0228595 -0.00426881
0.021625 0.000426573 0.0128258
-0.00848521 0.0278975 0.0320921
0.0336 -0.00758321 0.0199969
-0.0367036 0.0077778 0.021975
-0.0363953 0.00505799 0.0237552
0.0140331 -0.0189488 0.0128273
0.0217702 0.0131457 0.01116
-0.018491 -0.00675711 0.0363486
-0.0457268 0.00314592 0.00561623
0.0120534 -0.0187415 0.0142
-0.0123644 -0.0167118 0.0255655
-0.0218582 0.0166395 0.0323
0.0222624 0.00764976 -0.00158185
-0.0175149 -0.0108676 0.0295
0.0393803 0.0356169 0.00656877
0.0189142 0.0249063 0.0222362
0.0198576 -0.00480032 0.0118602
-0.00534996 0.0183458 0.0478264
-0.0396332 0.0176531 0.0183213
0.0131472 0.0113912 0.0273889
-0.0434877 0.0147659 0.00982708
-0.0339513 0.0167407 0.0245321
-0.0363212 0.006586 0.0241024
0.0130789 -0.0192997 0.0209566
-0.0356 -0.00689989 0.0146742
-0.00268542 0.01741 0.0376348
0.00922097 -0.0200247 0.0253788
0.00776442 0.0309398 0.0233082
-0.01936 0.0407189 0.0100816
0.00664998 -0.0252853 0.008275
0.0226427 0.0127634 -0.0328948
-0.00250758 -0.00854305 0.0446099
0.04054 0.00739571 -0.0291331
-0.0195631 0.0265961 0.0280894
0.0184404 -0.0138602 0.00201763
0.0256338 0.0166226 -0.0166676
0.0237977 -0.0227191 -0.000606198
0.000171859 0.00754688 0.034
0.0175946 -0.000522971 0.0265261
0.0101618 0.0019034 -0.0195006
0.023696 0.00957132 0.0263449
-0.028408 0.00305507 0.0293089
0.0358 0.0113694 0.0127374
-0.0195515 -0.0112224 0.0282243
-0.00516838 0.0185012 0.0345648
-0.0306 0.0339371 -0.0342145
-0.0273 -0.0220976 0.00389838
-0.000193665 0.0209985 0.0357921
-0.036438 0.0102077 0.0207731
-0.021258 -0.0228737 0.0135445
0.0208501 0.00493022 0.02025
0.00898985 -0.0191244 0.0145936
-0.0414093 0.00231073 0.016527
-0.0277808 0.0374341 0.0137223
-0.0353963 0.00689187 0.0250918
0.0253502 0.00869195 -0.0172637
-0.0207222 0.0222835 0.0292082
-0.0424 0.0252203 -0.0157
0.020225 -0.00772572 -0.00516553
0.0266413 -0.00463243 0.00766001
0.0324625 0.00765631 0.00375041
0.00568165 -0.0260093 0.00735
0.0155114 0.0287031 0.0247335
0.00858057 0.0293366 -0.00883233
0.0306264 0.0151171 -0.0317775
0.0249969 0.0100363 -0.00311588
-0.0380631 -0.0102064 -0.0124605
0.0120201 -0.0157242 0.0145665
-0.00497246 0.0184998 0.0328733
0.0162974 -0.00221643 0.022575
0.0173478 0.00863409 -0.0323297
-0.0458667 -0.000428234 -0.0197482
0.0112896 -0.00586145 0.0265111
0.030325 0.0250475 0.00595595
-0.0339667 -0.0204577 -0.00960768
-0.0267135 0.0384479 0.0084363
-0.0013805 0.0132847 0.0335089
-0.0381917 0.0291849 0.00651808
-0.0114447 -0.0102293 0.0306348
0.0181748 -0.0147074 0.0101774
0.0508673 0.00418388 0.0154947
-0.0378276 0.00772112 0.0229307
0.0139076 -0.00579291 0.0244959
0.0243208 0.0310284 -0.00667518
-0.0386622 0.0140403 0.020287
0.0041031 -0.0246885 0.0208432
0.0109053 0.00233633 0.029575
0.00663408 0.0168673 0.0338901
-0.0373429 0.0309822 -0.0177914
-0.00884589 0.00485857 0.0359912
-0.0410208 0.00136456 0.0101493
0.00471138 0.0344639 0.0236
0.00266426 0.0219815 0.0323879
-0.00539897 0.0202323 0.046418
0.0319265 0.0130619 -0.0316427
-0.0176697 -0.0190464 0.0259633
0.0410359 0.0321209 0.0198763
0.0168136 0.0140736 -0.00966482
0.0216071 -0.00469119 -0.0161754
0.0249725 0.0131296 0.0190963
-0.0312369 0.00589438 0.0262943
0.000755565 0.0235172 0.0341278
-0.0434656 0.0159414 0.0111153
0.0298281 0.0339234 -0.0203189
-0.0441 0.00027882 0.00783359
0.0189835 -0.00414781 -0.016353
-0.0304841 0.0340129 0.0193667
-0.0284798 0.0167135 0.0278722
-0.0363 0.033634 -0.00520399
-0.04019 0.0237938 -0.0232242
-0.0377422 -0.0149126 -0.00425137
-0.0219113 0.0101035 0.0330757
-0.037564 -0.0111992 0.00558645
-0.0202263 -0.00821768 0.0295781
-0.0286023 -0.0186638 -0.0177405
0.0189771 0.00823694 -0.0327201
0.0367 0.00504376 0.0226982
0.0100932 0.0130242 0.0297378
-0.0133106 0.034676 0.0227121
0.03525 -0.000435641 0.0127801
-0.00870921 0.0103986 0.0360172
-0.00608731 -0.0256589 0.0155958
-0.0026668 -0.0129804 0.0326781
-0.00850119 -0.00611343 0.0320755
0.036825 0.00588786 0.0218206
0.00858375 0.0319413 -0.00873252
-0.0206802 -0.0239504 0.010346
0.0302 -0.00580028 0.00469125
0.0271674 -0.00759254 -0.0294081
-0.0365198 0.0343982 0.00182585
-0.00545387 0.00501238 0.0396258
0.0111838 -0.0164183 0.016435
0.0243242 0.00307072 0.00285358
-0.0269992 -0.0140131 0.0201087
-0.015058 0.0357181 0.0264761
-0.03048 -0.0193077 -0.023343
0.00205497 0.0325245 0.0252131
-0.038131 -0.0101179 -0.0166448
0.0146778 0.00563198 -0.0317093
-0.0373556 0.029183 -0.0223127
0.0128036 0.0239338 0.0227455
0.0416823 0.0311515 0.0154958
-0.0261282 -0.0122988 0.0229045
-0.0413978 -0.00956576 0.00204685
-0.0373024 0.0191473 0.0144901
0.02545 0.00856024 -0.00524398
0.05039 0.00411687 0.0101614
0.0352321 0.0218461 -0.00999626
0.0283 0.0130744 -0.00158701
0.00754638 0.0140759 0.0440293
0.0159333 -0.0166818 -0.00175976
0.005555 -0.0230089 0.012072
0.0318667 -0.00477854 0.00669943
0.0181812 0.0118364 -0.0325503
-0.0261103 -0.00132703 0.0301415
-0.0433333 0.0252827 -0.0105799
0.0472655 0.0220532 0.0190662
-0.0319004 0.00225154 0.0251766
0.0481737 -0.00498361 0.0208793
0.0299333 0.0256338 0.00535077
0.0310032 0.0256968 0.0217744
-0.0326 0.026994 -0.0301747
-0.0384515 -0.0094045 -0.0159777
0.000401579 0.0227328 0.0326212
-0.037163 0.00320989 0.0228104
-0.016162 0.0141152 0.0392379
0.00589499 -0.00949697 0.0308911
0.03645 0.00322704 0.0190955
-0.000639943 -0.00331254 0.0329122
-0.0283367 0.0174017 0.0277464
-0.0212506 0.00415445 0.033171
-0.0222451 0.0014089 0.0319299
-0.0330419 0.030323 0.0128
0.00099137 -0.0247328 0.0153055
0.0249785 0.00696221 0.000301092
0.00686934 0.0095048 0.0345866
0.038316 0.00919223 -0.0301072
-0.00172446 0.0140378 0.0479869
-0.043365 0.0168706 0.0047545
0.0226664 -0.00580992 0.0182134
0.0109479 0.0293481 0.0243167
-0.0347467 -0.0168212 0.00476893
-0.03716 0.029093 -0.0230332
-0.00802813 -0.0240587 0.0182569
0.0220597 -0.006553 0.00760816
0.00679055 -0.0229894 0.00830278
-0.0467429 0.0186081 -0.0118016
-0.00965598 0.026414 0.030498
-0.00794084 0.0113324 0.035902
-0.0291968 0.016737 0.0274327
-0.0141525 0.027539 0.0288661
0.0501913 0.0113187 0.011043
-0.0396 0.0323273 -0.0118948
-0.0151393 -0.0231092 0.016658
-0.0176966 0.0340269 0.0213
-0.0178449 -0.0138733 0.0265065
-0.0439999 -0.000465037 0.00771064
0.00866375 0.00144926 0.0327278
-0.0229974 0.0282711 0.0252565
-0.0257194 0.0122107 0.0305787
-0.00898064 -0.00403786 0.038195
0.0247221 0.0129676 0.00932007
0.00581016 -0.0128879 0.02518
-0.0310796 0.0121684 0.0278763
0.0175769 -0.0147894 0.00198017
0.00203155 -0.0012571 0.0335045
0.0192656 -0.00664424 0.00999837
-0.037722 -0.011293 0.0048659
0.0505349 0.0032405 0.0163735
0.0223454 0.0113065 0.0290092
0.0223046 -0.00308071 0.00379182
-0.00221199 0.000536204 0.0382283
0.0239923 -0.00301677 0.0110107
0.0343481 -0.00871557 -0.0091074
-0.0422667 0.0013198 -0.0262314
-0.0425546 0.0226016 -0.000706669
-0.0195045 0.000562435 0.0323922
-0.000963516 0.0112516 0.0386299
-0.0178044 0.0321016 0.0291395
-0.00175564 -0.0103217 0.0337741
-0.016703 0.0159978 0.0382685
-0.0140015 -0.0241791 0.0220268
0.00528147 -0.0260221 0.0146522
-0.030175 0.0369137 -0.0330542
0.00308434 0.00145099 0.0325417
-0.0225402 0.0402092 0.0139679
-0.0195771 -0.0021119 0.032586
0.00527853 -0.023732 -0.00159981
0.0252134 0.00594315 0.0190792
-0.0336911 -0.0122306 0.0136884
0.000172422 0.00305907 0.0338222
-0.0406 0.0155035 -0.0282782
-0.0425467 0.00583605 0.0146993
0.0094 0.0327483 -0.00321054
0.0238 -0.00882875 -0.00183017
-0.0231575 0.0121565 0.0314615
-0.0134218 -0.0187468 0.0230815
-0.0428472 -0.00685503 0.00374401
0.020049 0.00336768 0.02624
0.0331357 -0.00846133 0.0217918
0.0178045 -0.0128692 0.00484716
-0.0134307 -0.0132704 0.028379
-0.0277391 0.022197 0.0270044
-0.0321313 0.0348975 0.0082612
-0.0355873 -0.0168713 0.00114102
-0.00801001 0.0393421 0.0230998
0.0500181 0.0123273 0.0109839
0.00924912 -0.00920253 0.02595
0.0181562 0.0114591 -0.0190193
0.000276566 -0.0124769 0.0320565
0.0199525 0.00682564 0.0208887
0.0254109 -0.00194896 0.0079
-0.0048583 0.011288 0.0486398
-0.0365099 0.0319844 0.00642964
0.00420464 0.010439 0.0363526
-0.0260155 -0.0177838 0.0184458
-0.0031145 0.0203495 0.0340553
-0.0201754 -0.0249541 0.00938653
-0.0103771 0.0310808 0.0306345
0.0029444 -0.0200275 0.0199288
-0.0121891 -0.0195437 0.0225095
0.0220976 -0.0111803 0.00725
-0.0256393 -0.0227526 0.00476719
0.0484179 0.0166876 0.00737142
0.0242831 0.00413511 0.00212287
-0.0259599 0.0149444 0.0294361
0.0495594 0.00672871 0.0245193
-0.00344209 -0.00596445 0.0365706
0.0202203 0.0139683 -0.0182975
0.0243363 -0.00520289 -0.0154083
0.0175916 0.0274709 0.0227205
-0.00155255 -0.00119605 0.0340911
0.00998677 0.000427559 -0.0180524
-0.00126335 0.0130892 0.0383245
0.0180501 0.00858413 0.0234474
0.0138255 0.0211509 0.0261145
-0.034468 0.0284954 0.0101047
0.0290011 0.0145064 -0.0324248
0.00349635 0.0104567 0.0367793
-0.0347444 0.0112531 0.0200822
0.0467957 0.0103279 -0.00064746
0.00478926 -0.026342 0.0103381
-0.0113946 0.0391856 0.0207
-0.0451875 0.0217093 -0.0106747
-0.0142268 0.0185075 0.0338161
-0.0258351 0.00414006 0.0307163
0.019434 -0.00686343 3.93813e-05
0.0369709 0.0339779 0.00393546
-0.020223 0.00151693 0.0331471
0.0111197 0.0140232 0.0315841
0.0224386 0.00680077 0.0290477
-0.0372631 -0.0117751 0.0124583
-0.00872694 -0.0272371 0.0127558
0.0230083 -0.0110475 -0.000695317
0.0490831 0.0122111 0.00557953
0.00308501 -0.0213385 0.0174333
0.0299568 0.0343929 -0.0198088
-0.0345 0.0128838 -0.0357587
-0.0426846 0.0247238 -0.00525373
0.0183954 -0.00120259 0.020928
-0.0344662 0.00302363 0.0234277
-0.00428161 0.0182748 0.0471909
0.0076227 -0.000325036 0.0309667
-0.0211669 -0.0228897 0.01288
-0.0319177 -0.0114168 0.017536
-0.00605195 0.0394564 0.0220848
-0.0367206 0.02819 0.0110453
-0.0160296 -0.0175762 0.0237986
0.049282 0.0121079 0.0064656
-0.00787229 -0.0208679 0.0216474
0.0193779 0.0248197 0.00725654
0.0499294 0.0104809 0.0236803
-0.00696006 0.0305276 0.0298143
0.0502703 0.0113154 0.0172041
-0.0335844 0.0273243 0.0124798
-0.00782146 -0.00819053 0.0322
-0.0387539 0.0122221 0.0163079
0.00493034 -0.0139711 0.0282231
-0.0184897 0.0276372 0.0262791
-0.042828 0.0112526 0.00471809
-0.0336649 0.0023749 0.0245333
-0.0287051 -0.00414933 0.0273023
0.0310671 0.0327553 -0.0213328
0.01665 0.00972615 -0.0123272
0.0239213 0.0167724 0.01379
-0.0372349 -0.0108831 0.0135406
0.0131216 -0.00492245 0.0255556
-0.0303882 -0.0129116 0.0172119
0.0194055 0.0239063 0.0254054
-0.00847171 -0.0208456 0.0262339
-0.034429 0.0316733 0.00976716
-0.04517 0.00598348 -0.00793662
0.00857653 0.0145471 0.0331535
-0.0247314 0.036328 0.0151662
0.034422 0.00314791 -0.0136593
0.00720475 0.0210077 0.0295
-0.0205371 0.021066 0.0315667
-0.0423211 -0.00788344 -0.00342229
0.0310248 -0.0143023 -0.00646354
0.0252154 0.0131577 0.0182089
0.0497106 0.000534354 0.00921806
0.0176972 -0.00950247 -0.000785766
0.0208209 0.00816799 -0.0331068
-0.0013361 -0.0195162 0.02205
0.0202598 0.0186025 0.0120321
0.00939167 0.0339541 -0.00495351
-0.00672533 -0.0123155 0.02935
-0.038425 -0.00774758 -0.0268939
0.0315949 0.00913282 -0.0321108
-0.00157139 -0.00309377 0.0334039
0.019755 -0.0121293 0.0182056
0.03415 0.00504356 0.00743051
-0.0389 -0.0091099 -0.0245956
-0.03355 -0.0154828 0.00907131
-0.0381593 0.0230581 0.00832293
-0.0355875 -0.0191205 -0.0115098
0.00206724 0.0166542 0.033502
-0.0394053 0.0285661 0.00109438
-0.0466356 0.0066553 0.00387651
-0.0292577 -0.019183 0.0135741
0.00290403 -0.0273604 0.00839138
0.00096295 0.0128814 0.0346477
-0.0386651 -0.00765888 0.00646721
0.00535652 -0.0228158 -0.000687969
0.0253684 0.00470025 -0.03311
0.0203626 0.0112671 0.0199961
0.00757252 0.0304083 0.0237625
-0.0436933 0.00751436 0.0100444
-0.0193715 -0.0239988 0.0128855
0.0397116 0.00919351 -0.0294035
-0.0164695 0.00927495 0.034925
-0.0158528 0.030824 0.0305146
-0.00421776 0.00495865 0.0392989
0.0313444 0.0175869 0.00468501
-0.0387456 -0.0134336 -0.00130942
-0.0462125 -0.00591151 -0.00879256
0.00938334 -0.0183829 -0.00513314
0.00220407 -0.000447885 0.032275
0.00834546 -0.00101425 0.0304667
0.0233045 0.0131246 -0.0177355
0.000118271 -0.00679048 0.0445452
-0.0413 0.028526 -0.00890452
-0.0391348 0.00409434 0.0152725
0.0283187 0.0105554 0.01095
-0.0346252 -0.0167358 -0.0104726
0.0237654 -0.0075198 0.00840001
0.00535 0.0322576 -0.00608451
0.00864212 -0.0193384 0.0163833
-0.0434215 0.015408 0.0115917
-0.0267277 0.0176356 0.0287649
-0.0349264 0.0344834 0.0111564
0.0496792 0.00232879 0.00735608
-0.000478222 -0.0121946 0.0326738
0.0250168 0.012227 0.0191196
0.0229701 0.00772816 0.0280346
0.0495176 0.00314949 0.024417
-0.0416571 0.00847389 0.0125987
-0.0180981 0.0203792 0.0368421
0.048848 0.018544 0.0182071
0.017605 -0.0138584 0.00383144
0.0181315 -0.00125743 0.0218057
0.0491104 -0.0031498 0.0146116
-0.0349667 0.0347261 -0.00506493
-0.036 0.0249149 -0.027995
-0.0174526 0.0221409 0.0323013
-0.0364765 0.00947402 0.0206954
-0.00771525 0.0284469 0.0316445
0.0250604 0.00945768 0.0208656
0.00420934 0.0139629 0.0363821
0.0221329 0.0222863 -0.0153447
0.02347 0.00684265 -0.0178238
0.0507508 0.00763588 0.015528
0.0221684 0.0112917 -0.00159683
-0.04588 0.00131527 -0.0199719
0.00216665 -0.0140944 0.0274337
0.0144063 0.0137479 0.02605
-0.0413147 0.00230787 0.00824764
-0.032275 -0.00240394 0.0255541
0.0227283 -0.00404432 0.0227668
-0.00502015 0.0336924 0.0272626
0.0310657 0.02587 0.0235404
0.0100348 -0.0217462 0.0118992
0.0221589 0.0095295 -0.00804056
-0.0377449 0.0167096 0.0155972
0.0492596 0.0131391 0.00735352
-0.0404914 -0.00760377 0.00215559
-0.0218333 0.036471 0.0136875
0.021773 0.00266465 0.0246372
0.00763234 -0.0020876 -0.0187069
-0.03835 -0.0149345 -0.0169202
-0.0160119 0.0274792 0.0280141
0.0504671 0.0113286 0.0155115
-0.0273691 0.030006 0.018724
-0.01891 0.0140527 0.0388614
-0.0150339 -0.0147263 0.0271297
-0.00909295 -0.0220598 0.0243255
-0.0449 0.0187518 -0.0182091
0.0368 0.00503871 0.0200031
-0.0157424 0.0068143 0.0349941
0.00326105 0.0259886 -0.0134767
-0.0354 -0.0101642 -0.0285262
-0.0407558 0.0150646 0.0174112
-0.0300722 -0.00741881 0.0236
-0.03451 0.00239577 0.0235167
0.0194353 -0.0100962 -0.000655444
-0.0363359 -0.000566302 0.0228907
0.00481575 -0.00221068 0.0314692
0.035575 0.00768065 0.0100354
-0.0124436 -0.00495717 0.0328943
-0.0258756 0.0312267 0.0209123
-0.041911 -0.00033013 -0.0141519
0.0247938 -0.00578621 -0.00257847
-0.0282743 -0.0210619 0.0102274
0.0225905 0.0120059 0.0254639
0.0487793 0.00406221 0.0272883
-0.0274226 0.0129209 0.0292964
-0.00431535 -0.000500643 0.0344672
-0.032225 0.012305 0.0228256
0.0221909 -0.00780027 0.0165915
-0.0178648 0.014872 0.0341468
-0.00274006 -0.00667224 0.036072
-0.0354334 -0.0117892 0.0106039
-0.0282217 -0.0154126 0.0198825
-0.0434429 0.0228721 -0.0176761
-0.00457373 -0.0133241 0.0274781
-0.0434765 0.0113245 0.0130119
-0.0371799 0.0246507 0.0179
-0.00135984 0.00145507 0.038021
-0.0389368 0.00601852 0.0213594
-0.0267205 -0.00404668 0.0287188
0.019852 0.0230277 0.0254336
0.0164009 -0.00963408 -0.00600711
0.0244699 0.00349557 0.00146074
-0.0444727 -0.0021391 -0.00427888
-0.0231475 -0.021188 0.0155517
-0.00672233 -0.0208541 0.0259648
-0.0067706 -0.00397342 0.0379342
-0.0113791 -0.00318518 0.0335628
-0.00951828 -0.00636004 0.0331
-0.00718133 0.0140292 0.0392805
-0.0403383 0.00221649 0.0171643
0.024679 0.00949107 0.0236325
0.00467258 0.0254129 0.0404069
-0.0459462 0.00674674 -0.00253107
0.00029833 0.0265401 0.0296833
0.0175172 -0.00956624 0.0164693
-0.0247333 -0.00423376 0.0254297
-0.00226354 -0.0175028 0.0243444
-0.040766 0.0071217 0.0187912
-0.0135283 -0.000335825 0.0392954
-0.0411457 -0.0040225 0.0136961
0.00410001 0.0379974 0.000419703
-0.0337274 0.0246466 0.0199682
-0.0373075 0.0318607 0.0096374
0.0294971 -0.0144652 -0.00760961
0.010378 0.012268 0.0322289
-0.034729 0.0275514 0.0101034
0.0197516 0.0238647 0.00728913
0.0247163 0.0147685 0.0189901
0.0175945 0.0284997 0.0190754
-0.040675 0.00216 0.0134929
-0.0159294 -0.00750736 0.0314663
-0.00782699 -0.0145499 0.0322317
-0.0358803 0.0151659 0.02125
0.0120573 0.0289051 0.0228
0.0365333 0.0104121 0.025415
0.0378934 0.0322195 0.00643319
0.0205276 -0.00318864 0.0110115
0.0249993 0.00232116 0.0109999
-0.0099953 0.0290531 0.0314051
-0.0426103 0.0049004 0.00282308
-0.00854582 -0.00979847 0.0311601
-0.00812028 -0.0213355 0.0254728
0.0503887 0.0122048 0.0145044
-0.0340064 -0.011205 0.0182278
0.00684616 0.0294144 0.0247776
0.0350538 0.0158458 0.0271281
0.0235987 0.0158338 0.0139267
-0.0212833 0.0372469 0.0127725
0.000283516 0.00322884 0.0377706
-0.00325165 -0.0208387 0.0242555
0.0241262 0.00147105 0.00301596
-0.00879907 -0.0103234 0.0308735
0.0223592 0.000442207 0.00743677
0.0263751 0.00223471 0.0117833
0.0309188 -0.00663465 0.00661371
0.0242317 0.00502556 0.00215255
0.0121837 0.0130709 0.0307341
-0.0355722 0.0129877 0.0206082
0.00824187 0.000800184 -0.0178564
-0.03575 0.0130687 -0.0340769
-0.00316226 0.00951079 0.0392741
0.03566 -0.00131835 0.0236148
0.024283 0.00155159 0.0217703
0.0224146 0.0148769 0.015475
0.0317137 -0.0132286 -0.00712739
0.0501628 0.00594997 0.00828447
-0.0362874 -0.0121758 -0.0151517
0.0261083 0.00408581 -0.00340359
0.02005 -0.0110437 -0.00316076
0.0207188 -0.0112106 -0.0133806
0.0154762 0.00864776 0.026075
-0.00496289 0.00146863 0.0389433
0.0185605 -0.0121084 0.00465413
-0.017004 -0.020617 0.0192812
-0.0151616 0.022093 0.0324461
-0.02305 -0.00461216 0.0304729
-0.028297 -0.0130283 0.0192019
0.0299159 -0.00366332 0.00391667
0.0119836 0.0304291 0.0211983
0.0483524 0.0113101 0.00289885
0.0203375 -0.0167003 0.00205999
0.0197054 0.0140404 0.0172019
-0.0417727 0.00307179 -0.0277451
0.000391757 0.0119465 0.0473215
0.029877 0.00734343 -0.0326985
0.00753475 -0.00952712 0.0283295
0.00736127 -0.0140244 0.022875
-0.0423 0.0206448 -0.0226181
-0.0250089 0.0140528 0.0310696
0.0184272 -0.00395622 0.0260543
0.0074162 0.0365787 -0.0060008
0.0219803 0.000488193 0.0109425
-0.0390125 -0.0122205 0.00662831
0.0169516 0.0274502 0.024439
-0.0133919 -0.0135436 0.028625
-0.0434693 -0.00190546 0.00890896
-0.0353859 0.0211984 0.014619
-0.0310342 -6.4231e-05 0.0250372
0.010266 -0.0101507 0.0243286
0.023804 -0.0034736 -0.0163703
0.00221058 -0.0217377 0.0194051
0.0226852 -0.00376569 -0.016508
0.00467557 0.0222761 0.0301538
0.0117311 0.0263085 0.0233
-0.047175 0.00857621 -0.0178831
-0.0232333 -0.00147836 0.0279911
-0.0295869 -0.00487942 0.024255
-0.03995 0.0147018 -0.0303873
0.00835194 -0.0204376 0.025334
0.00868159 0.00503665 0.0336752
-0.0354759 -0.0039089 0.0224872
-0.00165523 -0.0100226 0.0305676
0.0228916 0.00674233 0.00914623
0.0185351 0.00499202 0.0227498
0.0477327 0.0166948 0.00384218
0.0354539 0.00501446 -0.0131921
0.0209806 0.0210903 -0.00586732
-0.0394372 0.024385 0.00563653
-0.0198333 -0.0186407 0.0263079
-0.0421326 0.00861893 0.00742899
-0.009617 -0.0186262 0.0237309
-0.0417387 0.0201475 0.0118314
-0.0161132 0.0248553 0.0351394
-0.047145 0.00136304 -0.0015984
0.00318238 0.0140136 0.0461594
0.0138668 -0.00497119 0.0252298
-0.0151702 -0.00346267 0.0320244
0.0175875 -0.0217682 0.00931351
-0.00766817 0.00593515 0.036
0.0208489 0.0254993 0.0225641
-0.000653643 0.0187828 0.036558
0.0239706 0.0139666 0.00472815
0.00404416 -0.00483714 0.0440525
0.0372623 0.0315186 0.00444019
-0.0418583 -0.0111548 0.000274857
-0.0140566 0.0335355 0.027276
-0.0266645 -0.0199815 0.0153872
0.00469089 0.00859635 0.033574
-0.0137306 0.0309872 0.0248178
-0.00699959 -0.0102983 0.0308234
-0.0147424 0.0182177 0.034
0.00494494 0.023005 0.0297909
-0.0407143 0.0290294 -0.00972546
0.00370076 0.0257225 0.0405234
-0.0269541 0.00387122 0.0303085
0.00445689 -0.0120368 -0.0132404
0.00752773 0.000450135 -0.0186001
-0.0219721 0.00587509 0.0332455
0.0058738 -0.0245805 0.0100641
0.0180506 0.0140127 0.022754
-0.041325 0.00407376 0.00921163
-0.0434003 0.00757399 -0.0115049
0.0202506 0.0221369 -0.0130903
-0.0320148 0.00317559 0.0252043
0.000308216 -0.0264314 0.0118667
-0.0241421 -0.0040457 0.0300823
0.00759667 0.0344873 -0.00614532
0.0334833 -0.00307661 0.00923298
-0.0187132 -0.0247796 0.0129319
0.00395802 0.0238396 0.0316197
-0.0314 0.0295972 -0.0294889
-0.0317961 0.0293347 0.0172817
0.0167357 0.0293581 0.0209047
0.00674723 0.028389 0.02625
0.0491396 -0.00224362 0.0118722
0.0105 -0.0217323 0.00192468
-0.0353571 -0.000417394 0.0180173
0.00905478 -0.0191034 0.0233566
0.024501 0.0149447 0.0199764
0.01756 -0.0138969 -0.0125101
-0.0237078 0.0202569 0.0297429
-0.0372746 0.0343861 -0.0144506
-0.0461167 0.0199121 -0.0113808
0.0261926 -0.00850965 -0.029045
0.0263944 0.00144469 -0.00330578
0.00993328 -0.00956552 0.0277898
0.0148845 0.0149449 0.0272232
-0.0476667 0.0031168 -0.00254633
-0.0150123 -0.0057314 0.0323318
-0.0258477 0.00774663 0.0310635
-0.0311405 -0.0199422 0.00826309
0.0346773 -0.00499026 0.017294
-0.0242991 -0.0232604 0.00727511
0.0350188 0.00228279 0.0298661
0.0102841 0.0302335 -0.00973263
-0.0398994 0.023572 0.0126422
0.0126212 0.0149978 0.0273528
0.0153585 0.00954079 0.027145
0.000920789 0.0104887 0.0344592
0.00731505 -0.00392021 0.0311279
-0.0458833 0.0186318 -0.00597907
0.00689497 0.00511935 0.0349161
0.020166 -0.0120547 0.0119001
0.0246967 0.00238919 0.0137281
-0.0241109 0.0130769 0.0316564
-0.0168985 -0.0130236 0.0273327
-0.0265802 0.0284791 0.02182
-0.0328929 -0.00303843 0.0251833
0.0486052 -0.000329714 0.02542
0.0309857 0.00323229 0.00199546
0.0299497 -0.00406357 -0.0306214
-0.00677038 0.0344884 0.0270727
-0.0460488 0.00847812 -0.00228614
0.0207996 0.0265377 -0.0124141
0.0162215 0.0202663 0.0190979
-0.00162697 -0.00489567 0.0326959
-0.0175484 0.0166375 0.0377924
0.0039062 -0.00934666 0.0301605
0.0110102 0.00859596 0.0296111
-0.0445337 -0.00129626 0.00565312
-0.0455302 0.00218516 -0.00430066
0.00290107 -0.0203353 0.0214203
0.0238708 -0.00760457 -0.00254196
0.0184492 0.0168601 0.019222
-0.00582643 -0.0185268 0.0239
-0.0211764 -0.0158782 0.0234998
0.012234 -0.0203298 0.01378
0.0101328 0.0254434 0.02522
-0.0363638 0.0349275 0.00124943
-0.0233042 0.0167672 0.0300803
-0.0291625 0.0157891 0.027789
0.0176296 0.0283887 0.017223
-0.000687786 -0.00935188 0.0307654
-0.0304208 -0.00220273 0.0273641
-0.0327114 0.00840839 0.0240689
0.026218 0.0139929 0.0100667
0.0233924 0.0157393 0.00466761
-0.0132304 -0.00657638 0.032316
-0.0447857 -0.00137127 0.00387616
-0.00115031 -0.0142112 0.0267
0.00739167 -0.011207 -0.0104816
0.0356864 0.0240388 -0.00803929
0.0256628 0.0211008 -0.0156808
0.0502076 0.0113429 0.0118479
-0.0309962 -0.014928 0.0137945
0.0412268 0.0329042 0.016357
0.00865475 0.0205005 -0.0171096
0.00901937 0.0114099 0.0435209
0.00928854 0.0303657 -0.00710249
-0.0140939 -0.0112137 0.0296822
0.0243718 0.00585869 0.0236243
0.0256711 -0.0211457 -0.00163997
-0.012988 0.0374609 0.0228
-0.0341422 -0.0147951 0.00825485
0.00870873 0.0274591 0.0246281
0.0254315 0.0208362 -0.0310013
-0.00719933 -0.00853934 0.0360391
0.0175625 -0.014889 -0.00178471
-0.0258418 0.00314174 0.0306588
-0.0280999 -0.0236329 -0.00687043
0.0173536 0.010032 -0.0323392
-0.0314167 0.0086621 0.0262959
0.0211828 0.0175799 0.0102146
-0.0398667 0.0103125 -0.0302553
-0.0151317 0.030253 0.0291379
-0.0232161 0.026676 0.0255211
-0.036 0.00924125 0.0185362
-0.0133311 -0.0078149 0.0301099
0.00840101 0.010357 0.0440713
-0.0435006 0.000667299 0.00988789
0.0490243 -0.00123396 0.00838187
0.0355688 -0.0021558 0.0181514
0.0225754 -0.00310322 -0.0168983
-0.00538404 -0.0112286 0.0344971
0.048998 0.00408574 0.00399015
0.0216594 -0.00758648 0.00739918
-0.0149673 0.00854682 0.0350358
0.0101592 0.0285562 0.0242143
0.0340833 0.0166655 0.010158
-0.0112995 0.0320754 0.0253889
0.00130141 0.00319362 0.0335
-0.0165843 0.0400476 0.0164969
-0.0204658 0.0327088 0.0219861
-0.008964 -0.0204065 0.0212739
-0.0176622 0.00156445 0.0332881
-0.0294261 -0.0182907 0.0145659
0.0161322 0.0266664 0.0172967
0.0109257 -0.0196403 0.0236761
-0.00160406 -0.023972 0.015625
0.025515 -0.00487052 -0.00231632
-0.0275811 -0.00934782 0.0252505
0.00500001 -0.0261522 0.00423172
0.0192408 0.0229492 0.0192889
-0.0320333 -0.0067629 -0.0347408
0.0341899 0.0220469 -0.0104385
-0.0408909 -0.012177 0.000245695
0.00115526 -0.0221602 0.0192192
-0.0339896 -0.0057857 0.0227172
-0.0429828 -0.00774988 0.00231306
-0.0386451 0.0294268 -0.0157352
-0.0214316 0.0310777 0.0234952
0.00316229 0.0183109 0.0449228
-0.0328639 -0.0102555 0.0207225
0.0112279 -0.0048843 0.0289675
-0.0309735 0.0138075 0.0259961
0.0212739 0.0213425 0.00656497
-0.0481375 0.00762198 -0.0151017
-0.0212727 0.0316438 0.0285631
0.0199621 0.0256985 0.0200065
0.00483264 -0.0255311 0.00575467
-0.0331 0.0256097 -0.0307055
-0.00985774 -0.00124672 0.0390718
0.034 0.00143143 0.00831474
0.012108 0.0301645 0.0272248
-0.0319155 -0.00564762 0.0224386
0.0172171 0.000437314 0.02281
0.0112661 0.00501736 0.029225
0.00853715 0.000574674 0.0307687
-0.0443714 -0.00665475 -0.0168146
0.0109383 0.00298162 0.0310869
0.0202637 0.00248709 0.0252669
0.024403 0.0162832 -0.0322433
-0.000685378 0.0209919 0.0453871
-0.0157987 0.0195901 0.0374231
-0.00610376 0.023063 0.034177
0.0496997 0.00595616 0.00654915
-0.0375591 0.000507862 0.0218658
0.00320045 0.038203 9.38058e-05
0.00718572 0.00326761 -0.0152718
0.0129692 -0.0184511 0.000210244
-0.0343667 -0.0190537 -0.00156996
0.0323833 0.0229938 0.0136366
-0.0391909 -0.0139183 0.00109145
-0.0241 -0.00416626 0.0258427
0.0357312 0.0140532 0.0154222
0.0238921 -0.00147464 0.00849676
0.00186147 -0.0165068 0.0361758
-0.0337085 -0.0175704 0.00566629
0.0167012 0.0267186 0.0211125
-0.00518249 0.0275749 0.0304544
-0.0380667 0.0273271 -0.0230648
-0.0168505 0.040704 0.0161367
-0.00490804 -0.0253374 0.0164499
0.0189552 0.0211706 -0.00419134
-0.0320259 -0.00588056 0.0220661
0.0120982 -0.0184972 0.00742965
0.00914789 -0.0221723 0.00828873
-0.0274197 -0.000319175 0.0296271
-0.0300241 0.00233136 0.0271855
-0.03307 0.0156706 0.0208717
-0.0318605 0.0166902 0.0241945
-0.000639278 0.00854433 0.0340125
-0.028759 -0.00502984 0.027408
0.0463783 0.0112724 -0.00152741
-0.04604 0.00241936 -0.020292
-0.0233686 0.0321611 0.0200666
-0.0230553 -0.0253046 0.00533743
-0.03535 0.00405003 0.0199091
0.026037 -0.0135629 -0.0102025
-0.0147901 -0.017211 0.0252
-0.0160195 0.0348654 0.0213
0.022043 0.0168005 0.00916469
0.0200853 -0.00881416 0.0121
0.0280074 0.00212825 -0.016323
0.0220326 0.0301398 -0.00874084
0.0057284 -0.00739364 0.0323152
-0.0248 -0.000614528 0.0267717
-0.0203793 0.0246541 0.0288171
-0.0276747 -0.0225391 0.00556595
-0.0351 -0.00525297 -0.0316955
0.0309317 0.00502586 -0.0154747
-0.0266456 0.0194225 0.0277956
-0.0336809 -0.0159057 0.0128305
-0.0427167 0.00486439 -0.0268746
0.00931852 -0.0196403 0.0264599
0.00200907 0.0159996 0.0369015
0.0232225 0.0203321 0.0190524
0.0337438 0.0113184 0.0335443
-0.0424964 0.00061614 -0.013206
0.00313135 -0.0271282 0.0109263
-0.013237 -0.0202353 0.0209275
-0.0338306 -0.0157609 0.00831109
-0.0287238 0.032246 0.0196
-0.0141908 0.0193908 0.0334973
-0.0362874 0.00860675 0.020929
0.0340583 0.00230365 0.00831018
-0.0331333 -0.00862315 -0.0315348
-0.0328365 -0.0127719 0.0180153
0.0213337 -0.0104473 0.00762501
0.0253208 0.00408698 0.0137681
0.0496393 0.0158273 0.0145978
-0.0410252 0.00227655 0.010166
0.0252242 0.0149239 0.0163904
0.0495729 0.00862984 0.0244228
-0.00315983 -0.0146835 0.0314946
0.00274157 -0.0150407 0.0284105
-0.0349296 0.0346748 0.00650013
0.0197237 -0.00488502 -0.00162909
-0.0213598 0.0339962 0.0202639
-0.0375845 0.018327 0.0156894
-0.012734 0.0187609 0.0383365
0.00553105 -0.00312903 0.0309364
-0.0372245 -0.00234674 0.0210233
-0.0212792 0.0272359 0.02683
0.00675269 -0.0136897 0.0268164
0.0283818 0.011283 -0.00171374
0.0342413 0.0022193 -0.0135106
0.0251059 0.0275788 -0.0107154
-0.0231369 -0.00940717 0.028084
0.0320167 0.00679809 0.00281248
-0.0347868 0.0310082 0.0100956
0.0165917 -0.0148251 -0.00242872
-0.03741 0.0334995 0.0104442
-0.0471765 -0.00408276 -0.00873428
0.0271239 -0.00237397 -0.01542
0.0158776 0.0220521 0.02106
-0.0472813 -0.00235062 -0.00694548
-0.0124532 -0.00761971 0.0320267
-0.03457 0.00844984 -0.0367715
-0.03624 0.00403994 0.0187867
-0.00618579 -0.0267177 0.0134797
-0.0359325 0.027486 0.00749506
0.0370808 0.0340151 0.00794584
-0.0323274 -0.014929 0.0156873
-0.00140744 -0.0133201 0.0274667
0.01755 -0.020189 0.00398221
-0.0139293 -0.0171952 0.0253571
-0.00963447 0.011184 0.0358088
-0.0205967 -0.0131536 0.0265303
0.0325249 0.0212151 -0.0115763
-0.0364439 -0.00131934 0.0225439
0.0236086 0.0121594 0.00297551
0.020817 -0.00232198 0.0118837
0.0472585 0.0219734 0.0199541
0.0480124 0.0122265 0.00195993
0.0234778 -0.00222317 0.00738526
0.0238167 -0.00932943 -0.00151122
-0.00524106 -0.0141063 0.0323393
-0.0444899 -0.00301204 -0.000638742
0.0236739 0.00857507 0.00657764
0.00932463 -0.00774795 0.0269333
-0.0309155 -0.0172071 -0.0160472
-0.0185097 0.0374716 0.0228383
0.049479 0.0167085 0.0199502
0.00630395 -0.02113 0.000281257
0.0209096 -0.00491555 0.0019836
0.0230658 0.0133275 0.026495
-0.0273391 0.0334289 0.0187472
0.0164544 -0.017238 0.0108534
-0.0372 0.0309217 -0.0186458
0.0153604 0.00142685 0.0253425
-0.0318675 -0.014604 0.0171451
0.00743935 -0.0140679 0.0260685
-0.0339333 -0.0195481 -0.015064
0.0163432 0.00912314 -0.0320758
-0.00427793 -0.0265008 0.0134778
-0.04885 0.00670425 -0.0115503
0.0243465 0.00409373 0.0134333
-0.018443 -0.00686125 0.0313354
0.0497955 0.0149095 0.0200233
-0.0265382 0.0308956 0.0187418
-0.0256906 -0.0182014 0.0182128
-0.0309003 -0.0157103 0.0164935
0.0238748 0.0167102 0.0226627
-0.0151125 0.0203287 0.0328261
0.0226829 0.00547502 -0.033015
-0.0324176 0.0212347 0.0210182
0.00696023 -0.00926907 0.0404112
0.024469 -0.00311038 -0.0162407
-0.0171757 0.0229459 0.0360456
0.0217132 -0.00122461 0.00836397
-0.0194347 0.00516577 0.0340577
0.0237404 -0.00191798 -0.00215953
-0.00906019 0.0216913 0.0367542
-0.0339332 0.0257522 0.0182105
-0.0453054 0.0139942 0.00188869
-0.0399714 0.0211702 0.0124781
-0.0310104 -0.00299137 0.0252
-0.000517775 0.0133789 0.0342857
0.00470071 0.000395717 0.0455082
-0.0142514 0.0301007 0.026169
0.0218916 0.00689695 0.0136592
-0.000482162 -0.0137822 0.0269375
-0.00427085 0.000549667 0.0346864
0.0234363 -0.00220911 0.0218213
0.0232272 0.0186144 0.0227092
-0.0159666 0.014946 0.0343117
0.0119781 -0.0190784 0.00368845
-0.0041301 0.00648424 0.0357206
0.00484652 -0.00395712 0.0342481
0.0253993 0.0271919 -0.0112072
-0.0269583 0.0031115 0.0302504
0.00825948 0.0277242 0.0364942
-0.02795 -0.0085264 0.0246817
-0.0187628 0.0272766 0.02692
-0.0175191 0.0104602 0.0341043
0.0277847 -0.0168699 -0.00540047
0.0297058 -0.000726018 0.00390001
-0.0386005 -0.0141232 0.00123565
0.0202009 -0.0091552 -0.0147361
0.0239189 0.00490177 0.013725
-0.0114259 -0.0205451 0.0262266
0.0484492 0.0139383 0.00376648
-0.0150784 0.0158611 0.0344694
0.0351141 0.0336585 0.00461934
-0.0135251 -0.023593 0.022589
-0.0115586 0.0204612 0.0337155
0.0243638 -0.00126848 0.0163874
-0.00259167 -0.021842 0.0209019
0.0143255 -0.0183248 0.0172447
0.0478267 -0.00587495 0.0118982
-0.00252817 0.0341382 0.0247
0.0233525 0.0194297 0.019969
0.01015 -0.0167458 -0.00586761
-0.0104134 -0.0108699 0.0304578
-0.0414138 0.00146079 0.00832899
-0.00316012 0.0193526 0.0463402
-0.0444283 0.0139739 0.00923122
0.0201877 0.0239135 0.0187222
0.000426961 0.0131193 0.037899
0.0175272 0.0166758 0.0217812
0.0199582 0.0175082 0.0201818
-0.0398 0.0199934 -0.027444
-0.0259557 -0.0222358 0.00646304
0.00855 0.029518 -0.00613339
0.0480096 0.000548943 0.00288837
0.00133621 0.0231085 0.0306417
-0.0465133 0.0174652 -0.01429
0.0183699 -0.00208805 0.0207258
-0.046 -0.00647796 -0.00615615
0.0367 0.00419237 0.0226982
-0.0282358 0.0252826 0.0240942
0.00481165 0.0166461 0.0351462
-0.0199154 0.0384706 0.0225256
0.0194981 0.0122441 0.0210275
-0.0350578 0.0138877 0.0226
0.0506717 0.00405741 0.020041
0.0217804 0.00952776 0.0145798
0.000391757 0.0114002 0.0473215
-0.043806 0.00951142 0.000131238
-0.00939225 0.0393982 0.0202667
-0.0399167 -0.00304789 -0.0275693
-0.000826583 0.00954378 0.034
0.0040582 -0.00424273 0.0311429
0.0240222 0.00766522 -0.00628798
0.0224162 0.0202146 0.00472396
0.0166308 -0.0147001 0.00557841
-0.0161143 0.00417172 0.0338391
-0.004168 0.0173615 0.033125
0.0181721 0.0113921 -0.00787499
-0.0391293 0.0140694 0.0198518
0.0268342 0.000351816 -0.0163504
0.00490466 -0.0129245 0.0387749
-0.03368 -0.00402224 0.01905
-0.0382542 0.00770762 0.0225251
0.0154579 0.00279998 -0.0319937
0.0472603 0.015846 0.00209695
0.0499681 0.000696097 0.0120116
-0.0274226 -0.0136845 0.0198477
0.0229274 0.0058021 0.00118869
0.0145816 -0.00774076 0.02203
0.0141005 -0.0185804 0.0147106
-0.00608947 -0.0194808 0.0236505
0.0229256 -0.00571641 -0.0156917
-0.0425522 -0.00483246 0.0063968
0.00926614 -0.0185059 0.0164097
0.011888 0.034035 -0.00455414
-0.0148222 0.0254717 0.0293075
0.0359667 0.0158588 0.022737
-0.0267223 0.0247792 0.0253706
-0.0156851 -0.00691894 0.0322389
0.0481911 0.0176297 0.00742652
0.00482588 -0.0263458 0.00183259
0.0136595 0.0203059 0.0246167
0.0262243 -0.0102728 -0.0123782
0.0223629 0.00593137 0.0290163
-0.0327114 0.0114343 0.0240689
-0.0249635 0.00949456 0.0315392
0.00586622 0.00860597 0.0352823
-0.0318005 0.010382 0.0264127
0.0201353 -0.00740319 0.00204469
-0.0320734 0.033874 0.0101223
-0.0318017 0.00411665 0.0254998
-0.00402985 0.0122793 0.0485132
0.0192941 0.0219781 0.0197143
0.0166 -0.0221615 0.00909862
-0.0303345 -0.00999499 0.0233925
0.0311909 0.00876039 0.0018262
-0.00992527 0.0330668 0.0279869
0.0139 -0.0205678 0.00246803
-0.0380586 -0.000430134 0.0209251
0.0207823 0.0148954 -0.0181754
-0.00976842 -0.00239258 0.0342172
0.0307141 0.019394 -0.013535
0.0202347 0.0222316 0.00837077
0.0370312 0.0348617 -0.0205125
0.0322 0.0202408 0.00832911
0.0202601 0.0193528 0.0118972
0.0183338 0.0231003 0.0144555
-0.0320651 0.0301775 0.0154798
-0.0148577 -0.0197046 0.0265914
0.0413532 0.032876 0.0145181
-0.0328482 0.000356205 0.0238065
-0.0240649 0.0203236 0.0282739
0.020266 0.00964332 0.0190953
-0.029169 -0.0216966 0.00547773
0.0281211 -0.0141098 -0.0090928
-0.0323712 -0.0169269 0.0129215
-0.02848 -0.0222866 -0.0168362
0.00856495 0.0167844 0.0326184
-0.00521386 -0.00556885 0.0466807
-0.0104257 0.039031 0.0207
0.0189806 0.0266577 0.0118579
-0.0211985 0.0138241 0.0322973
-0.0457222 0.0129617 0.00558086
0.00376417 -0.00602317 0.0316181
0.00319167 0.0390572 0.000986387
-0.034325 0.00229797 0.0216964
-0.0135535 0.0329934 0.0218358
-0.0213385 -0.00642364 0.0304943
-0.0183977 -0.0182273 0.0226857
0.0362133 0.0112753 0.0263247
-0.03545 -0.0163965 0.00464213
0.00420931 0.0130859 0.0363821
-0.0166457 -0.0137285 0.0278429
-0.02905 0.0294537 -0.0330012
0.000216898 -0.00854158 0.0438243
0.0243073 0.0149467 0.0217651
0.03095 -0.000324929 0.00296858
0.0298 -0.00938514 0.0073984
0.0062909 -0.0165334 -0.00938386
0.00939099 0.031139 -0.00611983
0.00113781 0.00502316 0.0351615
-0.0063187 -0.0165458 0.0306825
-0.0282396 0.00209583 0.0295876
0.0128407 -0.0127784 0.0207769
-0.0265164 -0.000549593 0.030131
-0.0336571 0.0212992 0.0233041
0.00325952 -0.0257263 0.00465437
-0.0295 -0.0223602 -0.0143058
-0.0242023 0.0295679 0.0219435
-0.0439131 0.00573709 0.000627505
-0.0456712 0.00321734 0.00193962
0.0316583 0.0211079 0.00735049
0.0176724 -0.00576002 0.0189937
-0.0120936 0.0334971 0.0241
-0.0124989 0.0345171 0.0236637
0.0172022 0.0103869 -0.01948
-0.0323 0.0259281 -0.0314003
-0.0399405 0.0248743 -0.012479
0.0020274 0.0113472 0.0352934
0.0333261 0.0040999 -0.0142025
0.0197585 0.0268351 -0.0125772
-0.0176424 0.0353158 0.0197667
0.00125755 -0.00933154 0.0431076
0.0188883 -0.0138755 0.0108491
-0.00428894 0.0248001 0.0334696
-0.0229333 0.0353966 0.0126871
0.0230598 -0.000693744 -0.00182428
-0.0385605 -0.00945331 0.0128245
-0.0350667 0.0366698 -0.00155956
-0.0133608 0.000460887 0.0341965
0.00640967 -0.0110383 -0.013318
-0.0104871 -0.0181747 0.0242969
-0.0395443 0.00394801 0.017925
-0.0040648 -0.0104337 0.0345341
-0.0400227 -0.0114239 0.00179693
0.0242745 -0.00051556 0.0102279
0.0418308 0.0337227 0.020003
0.0301366 -0.000442638 -0.0149226
0.0232368 -0.00308268 0.00735279
-0.0384934 -0.0132964 0.00394273
-0.0197735 -0.0050723 0.0369159
-0.00779273 0.00674875 0.035646
0.00671132 -0.0130965 -0.0122896
-0.00715093 -0.0282714 0.0108537
0.0183224 0.0121216 0.0254163
0.00228287 -0.028059 0.010196
-0.00353949 0.00944007 0.0484639
0.0162007 -0.0134092 0.0142
-0.0366059 0.0347738 -0.0115995
0.00719601 -0.00749232 0.0414112
0.00399979 -0.0272258 0.00644701
0.0210193 0.0303946 -0.00906013
-0.0148477 0.0227905 0.0309333
-0.00134888 -0.0203994 0.02095
0.00492061 -0.011089 0.02698
0.0190889 0.0210709 -0.0301248
0.00328753 0.0130257 0.0338255
-0.0442 0.0181002 -0.0220654
0.0218964 0.0148636 0.0289576
0.0300368 -0.00486259 -0.013608
0.0483616 0.0103709 0.00288971
0.0140167 -0.023862 0.0101791
-0.0328564 -0.00232395 0.0229316
-0.000655907 0.0362968 0.0232418
-0.0268062 -0.0231726 -0.0116296
-0.0410209 -0.0103174 -0.00340026
0.0233647 0.0203186 0.0101561
-0.00878339 -0.0130903 0.0291927
0.0217315 0.0135823 -0.0327465
-0.0320873 0.0294415 -0.0235018
0.0162519 -0.0112235 -0.0043836
0.0185599 -0.0131874 0.00663661
-0.0088184 0.0185053 0.0342662
0.0186065 0.0247207 0.0146898
-0.0251472 -0.00772562 0.0274113
-0.0299119 -0.00591446 0.0237621
-0.0421419 0.0104709 0.00646137
0.0222347 -0.00689949 0.0002109
-0.041704 0.0245895 -0.00163338
0.00618889 0.0185074 -0.0178626
-0.03572 0.0184992 -0.0323434
-0.0436822 0.0122868 0.0119277
0.00668991 -0.0120603 0.028106
0.032746 0.0351946 -0.0221244
0.0265321 0.0103878 -0.00431679
0.0494623 -0.00219814 0.0173157
0.025262 0.0113629 0.0155782
0.0342359 0.00681414 -0.0140216
0.0217016 -0.00439965 -0.0310156
0.00489921 0.00219017 0.0456143
0.00739043 0.0257598 0.026396
-0.00310666 0.00677749 0.0391418
0.0189296 0.0174975 -0.0176464
0.00402016 -0.0129032 0.0279554
-0.0115846 0.0310625 0.0295527
0.00668281 0.0235419 0.0298686
-0.0480187 0.000484004 -0.00429095
-0.0381002 0.0222487 0.016514
-0.0475 0.00484316 -0.0006124
0.0319236 -0.010729 -0.00910657
0.0246458 -0.00325305 0.008
-0.0425782 -0.00418085 -0.00808769
0.00678684 -0.0249187 0.00211493
0.00853693 -0.0042002 -0.0160515
-0.0194102 0.00505191 0.0332632
-0.0182229 -0.00615537 0.0366172
0.0257588 0.00769591 0.0155623
-0.00501212 0.0175792 0.0331846
0.0223852 0.00145782 0.0281662
-0.0148046 -0.0264558 0.010967
0.00312605 -0.022159 0.0158
0.0128303 -0.00845465 0.0233
0.00557756 -0.000499472 0.0347529
-0.0416415 -0.00947342 -0.00075181
-0.0251653 -0.0257079 -0.00818757
-0.0060923 -0.00687587 0.0329272
-0.0390009 0.00040886 0.0201198
0.0129885 0.0279767 0.0233183
0.0193967 0.0113506 -0.0106376
-0.00119821 -0.0164336 0.0286355
0.0122764 0.0275348 0.0219183
0.00937058 0.00319643 0.0305444
0.030925 -0.00131264 0.00307098
0.0328222 0.0204324 0.0109588
0.0255026 0.0130836 0.0163682
0.02031 -0.0146138 0.0087
0.0244587 -0.00595373 -0.0309634
-0.035543 0.00214978 0.0219589
0.0208797 -0.00203316 -0.00231477
-0.0112632 0.00398129 0.0347915
0.00504803 0.0058159 0.0329333
-0.0184985 0.030905 0.0293815
0.0110473 0.0297941 0.0247
0.016315 0.0276152 0.0166603
-0.0166771 -0.0211259 0.0243798
0.0227812 0.0290424 -0.00944184
-0.013216 0.000829379 0.0349209
0.02704 0.00769652 -0.00334882
-0.0293239 -0.0182154 0.00993589
-0.00392258 -0.020254 0.02196
0.0488968 0.0148544 0.0074084
-0.00760992 0.0221402 0.0316
-0.0357667 0.00582584 0.0191916
0.00500354 -0.0149556 0.02382
-0.00590435 0.014316 0.0347
-0.00273587 -0.00941018 0.044472
-0.0371047 0.0277537 0.00513571
-0.0439656 0.0148973 0.00122406
-0.0287 0.0143454 0.0236377
-0.0467833 0.00392944 0.00227305
0.0499798 0.0042493 0.00724261
0.01715 -0.00940636 -0.00678065
-0.018 0.00279665 0.0309376
0.03491 0.0157476 0.0280905
-0.00539194 0.0337436 0.024425
0.0157382 0.00243775 0.0270008
0.00836667 -0.0140309 -0.00816948
0.0328813 0.0167549 0.00734615
-0.0276687 -0.0103234 0.0246293
-0.00226737 0.0238647 0.0307167
-0.0302277 -0.0209622 0.0039775
0.00818112 -0.0185276 0.0297899
0.0110439 -0.0210385 0.00837151
0.0129255 0.0139993 0.0272667
-0.0349873 0.0203069 0.0219542
-0.00593984 0.0363608 0.0251377
0.0479954 -0.00574237 0.0127527
0.0101684 -0.0141239 0.0206778
0.0199269 0.0249538 0.01835
-0.0256442 -0.0148858 0.0210362
-0.0478467 0.0102284 -0.00518879
-0.0326686 0.0162648 0.0232854
-0.0187981 0.038587 0.0158782
0.00333703 -0.0154133 0.0277492
-0.0233 -0.00282098 0.0269827
-0.0416244 -0.00736241 0.00790443
-0.03235 0.0266765 -0.0306252
0.0207379 0.000799158 -0.00411905
-0.00980306 -0.0097042 0.0311437
-0.0449636 0.00141559 0.00561308
-0.0311467 -0.0168829 -0.0179476
-0.0113848 -0.0245205 0.016124
0.0498516 0.00423082 0.0236655
0.0492697 0.0148798 0.0100487
0.00110837 0.0177896 0.0365222
0.0145262 0.0194168 0.0244763
-0.0094284 0.0317132 0.02629
-0.03016 -0.0232958 -0.00608125
0.0505514 0.00508656 0.0110076
0.03167 0.0248811 0.0263034
0.0130136 0.0194457 0.0280732
-0.00607511 -0.00760617 0.0325874
0.0192881 -0.00840211 0.0271702
-0.0294532 0.0176381 0.0271578
-0.0124306 0.0283384 0.028784
0.0144591 0.0150172 0.0255194
0.01658 -0.0128815 0.0135667
-0.020472 0.0131236 0.0325461
-0.019365 0.0131456 0.0329393
0.028909 0.0339776 -0.0206502
0.015818 -0.00586636 0.0218271
-0.00130378 -0.0227333 0.01728
0.0194587 0.0266337 0.0199787
0.00396495 0.0274688 0.0279111
-0.0167761 0.00675197 0.0343423
0.0112429 -0.0149858 0.0198451
0.00944847 0.0237309 0.02694
-0.00957022 0.0292294 0.0287658
0.00986176 0.00140819 -0.0195311
-0.0455 0.0193489 -0.00528266
0.0197596 0.0246932 0.0217954
-0.0442 0.0234016 -0.00931951
-0.00413847 -0.00870016 0.030682
-0.018808 -0.00785282 0.0302101
0.000517651 -0.0141571 0.0266
0.0166419 0.0185586 0.020924
0.01565 0.00768201 -0.0119145
0.0170995 0.0113619 -0.0114172
-0.0368322 0.029194 0.00563947
-0.02208 -0.0159567 0.0206839
0.0175062 0.0265802 0.0243158
-0.0105454 0.00922348 0.0357118
0.0140557 0.00965213 0.0291285
-0.00901839 -0.0240583 0.02098
0.0280795 -0.00867577 -0.0126792
-0.0320106 -0.0174522 0.007301
-0.0195674 0.00144111 0.0326796
-0.0462385 0.0192355 -0.0123143
-0.00970095 0.0203035 0.0340631
-0.0356833 0.0339571 -0.00425247
-0.0227667 -0.0240907 0.00377905
0.0489136 -0.00308474 0.0208353
0.0241745 0.0202881 0.0164619
-0.00485312 0.00595366 0.035817
-0.0426545 -0.0103555 -0.015055
-0.0437183 0.0109755 0.000970922
0.0315231 0.00673591 -0.0150804
-0.024626 0.0284597 0.0255536
-0.000420369 -0.0127636 0.0322279
-0.00418231 -0.00690256 0.045644
-0.0392344 0.0313222 -0.000805899
-0.0315166 0.0130759 0.0255356
0.0356234 0.0236484 -0.00849849
0.0200627 0.0158112 0.0137191
0.0226669 0.00194527 -0.0327356
-0.000400735 0.022773 0.0310167
0.00683751 -0.0102345 -0.010643
0.0110174 0.0219525 0.0268667
-0.0314621 -0.00867179 0.020197
0.00128204 0.0184328 0.0322455
-0.00208973 -0.0095617 0.031726
0.0108822 0.00602512 0.0316003
-0.0240155 0.000543287 0.0314522
0.006913 0.0322321 -0.0046166
-0.0414263 0.0223514 -0.00895242
0.0361438 0.00763884 0.0280787
-0.020125 0.0249777 0.0244005
-0.00315705 0.0356885 0.02354
0.0248626 0.00956018 0.021759
0.0292074 -0.00486085 -0.0140001
-0.0328571 0.0319033 -0.025201
0.00120681 0.00947848 0.0377901
-0.0277043 0.0338992 0.0183259
0.0130514 0.000460197 0.027325
-0.0425429 0.000561922 0.0108131
-0.0292543 0.0329137 0.01975
0.0179209 0.0266514 0.017625
0.0351667 0.0167213 0.0253805
-0.0319871 -0.0103817 0.0184512
-0.0350897 0.0220991 0.0145799
0.0211147 -0.00129658 0.0136651
0.00566216 0.0236768 0.0409929
-0.0250378 0.0340917 0.0194356
-0.038353 0.0122541 0.0216707
0.0251833 0.0311564 0.0119807
0.00951161 -0.00843501 0.0281738
-0.000156298 -0.0270847 0.0129651
0.00847635 0.0210631 0.02875
0.024045 0.0158266 0.00199475
0.0488946 0.000528546 0.00558797
-0.0445333 0.00409901 -0.0241246
-0.0423 -0.0124846 -0.00708866
-0.0299163 0.0208872 0.0259834
-0.0263747 0.0328536 0.0196
-0.0050768 -0.0247111 0.0154667
0.0103589 -0.0192517 0.00916512
-0.0222059 0.0212024 0.028822
-0.0257216 -0.0155127 0.0198869
0.0213646 0.0203497 -0.0136338
0.00118686 0.000416574 0.0340396
0.0335348 -0.00137939 -0.0126827
-0.0248326 0.0292295 0.0216833
0.0353 -0.00216129 0.0164722
-0.0389798 0.0122491 0.0210184
-0.0265553 0.0355063 0.0178848
0.0195493 0.0266952 0.0187948
0.00330475 -0.0266721 0.0087
-0.045732 0.00118498 0.00307
0.0351692 0.014898 0.0118879
-0.00974629 0.0356486 0.02295
-0.0419938 -0.00502351 0.00742898
-0.0372931 0.00237057 0.0224464
-0.000728265 -0.0214131 0.0191833
-0.00151903 -0.0057414 0.0324591
0.0222306 0.00846648 -0.00150443
0.0155263 0.0114962 0.0255875
0.0245129 0.0140454 -0.0328027
0.021951 0.0173365 -0.0174131
-0.0346786 -0.00589455 0.0164158
-0.00908522 0.00676316 0.0398339
-0.0150685 0.00767083 0.0350995
-0.0382207 0.00588769 0.0170856
-0.043325 0.0227048 0.0037423
0.0394501 0.00829397 -0.0296555
0.0167895 -0.00762454 0.0191819
-0.012004 0.0324102 0.0293271
0.0351108 0.022863 -0.00954186
0.036175 0.0122819 0.0163346
0.0171585 0.00863139 0.0245173
0.0202117 0.0203798 -0.0132088
-0.0412667 -0.00685594 0.0066444
-0.00159306 -0.0142739 0.0311729
-0.0148441 -0.0164418 0.0260333
0.000483801 -0.0022623 0.046002
-0.03675 -0.0170232 -0.0161835
0.0490552 0.0166517 0.024566
-0.0449667 0.0205289 0.000377943
0.019431 0.000436237 0.0200599
0.0491727 0.0104906 0.00546123
0.00955317 0.0346791 0.028128
0.00132105 0.0265727 0.0289818
0.00283438 -0.00597625 0.0316917
-0.0168983 0.00508861 0.0343918
